# .PCD v0.7 - Point Cloud Data file format
VERSION 0.7
FIELDS x y z
SIZE 4 4 4
TYPE F F F
COUNT 1 1 1
WIDTH 1569
HEIGHT 1
VIEWPOINT 0 0 0 1 0 0 0
POINTS 1569
DATA ascii
2.862 0.88 0.74000001
2.898 0.88 0.736
2.961 0.88 0.73799998
2.984 0.88 0.73000002
3.0339999 0.88 0.72799999
3.0840001 0.88 0.72600001
3.128 0.88 0.722
3.1800001 0.88 0.71899998
3.26 0.88 0.722
3.3310001 0.88 0.72299999
3.358 0.88 0.713
-5.9499998 0.88800001 1.2640001
-5.7729998 0.88800001 1.253
-5.6020002 0.88800001 1.242
-5.4520001 0.88800001 1.233
-5.2740002 0.88800001 1.217
-5.1440001 0.88800001 1.211
-5.0430002 0.88800001 1.21
-4.9299998 0.88800001 1.206
-4.7909999 0.88800001 1.194
-4.6890001 0.88800001 1.1900001
-4.592 0.88800001 1.187
-4.5040002 0.88800001 1.1849999
-4.395 0.88800001 1.177
-4.316 0.88800001 1.176
-4.217 0.88800001 1.169
-4.1329999 0.88800001 1.165
-4.0359998 0.88800001 1.1569999
-3.9489999 0.88800001 1.151
-3.8740001 0.88800001 1.147
-3.8039999 0.88800001 1.145
-3.721 0.88800001 1.137
-3.6470001 0.88800001 1.132
-3.5899999 0.88800001 1.132
-3.5350001 0.88800001 1.131
-3.4449999 0.88800001 1.119
-3.372 0.88800001 1.112
-3.3239999 0.88800001 1.112
-3.2920001 0.88800001 1.117
-3.22 0.88800001 1.108
-3.197 0.88800001 1.1160001
-3.1500001 0.88800001 1.115
-3.0869999 0.88800001 1.108
-3.0220001 0.88800001 1.1
-2.9749999 0.88800001 1.097
-2.9289999 0.88800001 1.095
-2.9089999 0.88800001 1.102
-2.8529999 0.88800001 1.095
-2.823 0.88800001 1.097
-2.786 0.88800001 1.097
-2.7490001 0.88800001 1.096
-2.7190001 0.88800001 1.098
-2.664 0.88800001 1.09
-2.632 0.88800001 1.09
-2.6040001 0.88800001 1.092
-2.5539999 0.88800001 1.084
-2.533 0.88800001 1.0880001
-2.5050001 0.88800001 1.089
-2.45 0.88800001 1.0779999
-2.4070001 0.88800001 1.071
-2.3789999 0.88800001 1.071
-2.352 0.88800001 1.071
-2.3180001 0.88800001 1.068
-2.2909999 0.88800001 1.068
-2.2620001 0.88800001 1.067
-2.2219999 0.88800001 1.059
-2.2130001 0.88800001 1.067
-2.1860001 0.88800001 1.066
-2.1570001 0.88800001 1.064
-2.128 0.88800001 1.061
-2.1070001 0.88800001 1.062
-2.0650001 0.88800001 1.052
-2.05 0.88800001 1.0549999
-2.026 0.88800001 1.0549999
-2.0020001 0.88800001 1.053
-1.979 0.88800001 1.052
-1.96 0.88800001 1.053
-1.934 0.88800001 1.05
-1.9 0.88800001 1.0420001
-1.885 0.88800001 1.045
-1.868 0.88800001 1.046
-1.839 0.88800001 1.04
-1.823 0.88800001 1.0420001
-1.798 0.88800001 1.038
-1.7819999 0.88800001 1.039
-1.758 0.88800001 1.035
-1.748 0.88800001 1.04
-1.726 0.88800001 1.0369999
-1.714 0.88800001 1.04
-1.689 0.88800001 1.035
-1.677 0.88800001 1.038
-1.665 0.88800001 1.04
-1.632 0.88800001 1.029
-1.62 0.88800001 1.0319999
-1.595 0.88800001 1.026
-1.581 0.88800001 1.027
-1.5650001 0.88800001 1.026
-1.554 0.88800001 1.028
-1.5319999 0.88800001 1.023
-1.512 0.88800001 1.0190001
-1.4960001 0.88800001 1.0190001
-1.487 0.88800001 1.022
-1.482 0.88800001 1.028
-1.457 0.88800001 1.02
-1.438 0.88800001 1.016
-1.4299999 0.88800001 1.02
-1.4119999 0.88800001 1.017
-1.402 0.88800001 1.0190001
-1.3940001 0.88800001 1.022
-1.372 0.88800001 1.015
-1.358 0.88800001 1.0140001
-1.3430001 0.88800001 1.012
-1.336 0.88800001 1.016
-1.313 0.88800001 1.008
-1.303 0.88800001 1.008
-1.29 0.88800001 1.008
-1.271 0.88800001 1.002
-1.265 0.88800001 1.006
-1.247 0.88800001 1.001
-1.238 0.88800001 1.003
-1.227 0.88800001 1.002
-1.219 0.88800001 1.005
-1.201 0.88800001 0.99900001
-1.194 0.88800001 1.002
-1.187 0.88800001 1.005
-1.1720001 0.88800001 1.001
-1.166 0.88800001 1.005
-1.15 0.88800001 0.99900001
-1.136 0.88800001 0.99599999
-1.127 0.88800001 0.99699998
-1.118 0.88800001 0.99800003
-1.11 0.88800001 0.99900001
-1.099 0.88800001 0.99900001
-1.091 0.88800001 0.99900001
-1.082 0.88800001 1
-1.075 0.88800001 1.003
-1.064 0.88800001 1.001
-1.048 0.88800001 0.995
-1.041 0.88800001 0.99699998
-1.022 0.88800001 0.98699999
-1.0089999 0.88800001 0.98299998
-1.003 0.88800001 0.986
-0.99299997 0.88800001 0.98400003
-0.98799998 0.88800001 0.98799998
-0.98000002 0.88800001 0.98900002
-0.97100002 0.88800001 0.98799998
-0.95999998 0.88800001 0.98500001
-0.95200002 0.88800001 0.986
-0.94499999 0.88800001 0.98799998
-0.94099998 0.88800001 0.99199998
-0.93199998 0.88800001 0.991
-0.92299998 0.88800001 0.99000001
-0.91299999 0.88800001 0.98799998
-0.90499997 0.88800001 0.98799998
-0.90100002 0.88800001 0.99199998
-0.89300001 0.88800001 0.99199998
-0.88300002 0.88800001 0.99000001
-0.87199998 0.88800001 0.986
-0.86699998 0.88800001 0.98799998
-0.86000001 0.88800001 0.98900002
-0.84399998 0.88800001 0.98000002
-0.83200002 0.88800001 0.97399998
-0.82700002 0.88800001 0.977
-0.81699997 0.88800001 0.97399998
-0.81300002 0.88800001 0.977
-0.80199999 0.88800001 0.97299999
-0.79799998 0.88800001 0.977
-0.79299998 0.88800001 0.97899997
-0.78399998 0.88800001 0.977
-0.77899998 0.88800001 0.97899997
-0.77200001 0.88800001 0.97899997
-0.76099998 0.88800001 0.97399998
-0.75599998 0.88800001 0.97600001
-0.75099999 0.88800001 0.97799999
-0.74000001 0.88800001 0.97299999
-0.73400003 0.88800001 0.97399998
-0.72899997 0.88800001 0.977
-0.72000003 0.88800001 0.97399998
-0.71399999 0.88800001 0.97399998
-0.70499998 0.88800001 0.97100002
-0.70099998 0.88800001 0.97299999
-0.69400001 0.88800001 0.97299999
-0.68900001 0.88800001 0.97500002
-0.68199998 0.88800001 0.97399998
-0.67799997 0.88800001 0.977
-0.667 0.88800001 0.97100002
-0.662 0.88800001 0.97299999
-0.65499997 0.88800001 0.97100002
-0.64499998 0.88800001 0.96600002
-0.63499999 0.88800001 0.95999998
-0.63099998 0.88800001 0.96200001
-0.62599999 0.88800001 0.96399999
-0.61699998 0.88800001 0.95899999
-0.60699999 0.88800001 0.95300001
-0.60000002 0.88800001 0.95200002
-0.59600002 0.88800001 0.954
-0.588 0.88800001 0.94999999
-0.583 0.88800001 0.95200002
-0.57700002 0.88800001 0.95099998
-0.57200003 0.88800001 0.95200002
-0.56300002 0.88800001 0.94700003
-0.55699998 0.88800001 0.94599998
-0.551 0.88800001 0.94499999
-0.546 0.88800001 0.94599998
-0.542 0.88800001 0.94800001
-0.537 0.88800001 0.94999999
-0.53299999 0.88800001 0.95099998
-0.528 0.88800001 0.954
-0.52399999 0.88800001 0.95599997
-0.51800001 0.88800001 0.954
-0.50599998 0.88800001 0.94199997
-0.50199997 0.88800001 0.94499999
-0.498 0.88800001 0.94700003
-0.49399999 0.88800001 0.949
-0.48899999 0.88800001 0.95099998
-0.48199999 0.88800001 0.94700003
-0.47600001 0.88800001 0.94499999
-0.46799999 0.88800001 0.94
-0.46399999 0.88800001 0.94199997
-0.458 0.88800001 0.94
-0.45300001 0.88800001 0.94099998
-0.44800001 0.88800001 0.93900001
-0.442 0.88800001 0.93699998
-0.43700001 0.88800001 0.93800002
-0.433 0.88800001 0.93900001
-0.42899999 0.88800001 0.94099998
-0.42399999 0.88800001 0.94099998
-0.41999999 0.88800001 0.94300002
-0.41499999 0.88800001 0.94400001
-0.41100001 0.88800001 0.94599998
-0.405 0.88800001 0.94300002
-0.40000001 0.88800001 0.94400001
-0.396 0.88800001 0.94599998
-0.39199999 0.88800001 0.94700003
-0.38699999 0.88800001 0.94599998
-0.37900001 0.88800001 0.94
-0.37400001 0.88800001 0.93800002
-0.36899999 0.88800001 0.93800002
-0.36399999 0.88800001 0.93800002
-0.36000001 0.88800001 0.93900001
-0.35600001 0.88800001 0.93900001
-0.34999999 0.88800001 0.93599999
-0.34299999 0.88800001 0.93000001
-0.33700001 0.88800001 0.92799997
-0.33199999 0.88800001 0.92500001
-0.32699999 0.88800001 0.92400002
-0.32300001 0.88800001 0.926
-0.31900001 0.88800001 0.92699999
-0.315 0.88800001 0.92799997
-0.31099999 0.88800001 0.93000001
-0.308 0.88800001 0.93400002
-0.30399999 0.88800001 0.935
-0.29899999 0.88800001 0.93699998
-0.292 0.88800001 0.92699999
-0.28799999 0.88800001 0.92900002
-0.28400001 0.88800001 0.92900002
-0.27900001 0.88800001 0.92799997
-0.27500001 0.88800001 0.93000001
-0.271 0.88800001 0.93099999
-0.26699999 0.88800001 0.93199998
-0.26199999 0.88800001 0.93099999
-0.25600001 0.88800001 0.92500001
-0.252 0.88800001 0.926
-0.248 0.88800001 0.92699999
-0.244 0.88800001 0.92799997
-0.23800001 0.88800001 0.92000002
-0.234 0.88800001 0.921
-0.229 0.88800001 0.92000002
-0.22499999 0.88800001 0.921
-0.22 0.88800001 0.91900003
-0.21600001 0.88800001 0.92000002
-0.213 0.88800001 0.92400002
-0.20900001 0.88800001 0.926
-0.205 0.88800001 0.926
-0.20100001 0.88800001 0.92699999
-0.19599999 0.88800001 0.92500001
-0.192 0.88800001 0.92299998
-0.18799999 0.88800001 0.92400002
-0.183 0.88800001 0.92400002
-0.17900001 0.88800001 0.92199999
-0.175 0.88800001 0.92199999
-0.17 0.88800001 0.92000002
-0.16599999 0.88800001 0.92000002
-0.16 0.88800001 0.91100001
-0.156 0.88800001 0.90899998
-0.152 0.88800001 0.91000003
-0.148 0.88800001 0.91100001
-0.14399999 0.88800001 0.912
-0.14 0.88800001 0.91299999
-0.13600001 0.88800001 0.91299999
-0.132 0.88800001 0.91399997
-0.12800001 0.88800001 0.91500002
-0.124 0.88800001 0.91500002
-0.12 0.88800001 0.91600001
-0.116 0.88800001 0.917
-0.112 0.88800001 0.91799998
-0.108 0.88800001 0.91799998
-0.104 0.88800001 0.91900003
-0.1 0.88800001 0.91500002
-0.096000001 0.88800001 0.91500002
-0.092 0.88800001 0.91600001
-0.086999997 0.88800001 0.91100001
-0.082000002 0.88800001 0.903
-0.078000002 0.88800001 0.89899999
-0.074000001 0.88800001 0.89899999
-0.071000002 0.88800001 0.90399998
-0.067000002 0.88800001 0.90399998
-0.063000001 0.88800001 0.90399998
-0.059 0.88800001 0.90600002
-0.055 0.88800001 0.90499997
-0.050999999 0.88800001 0.90200001
-0.046999998 0.88800001 0.90600002
-0.043000001 0.88800001 0.90200001
-0.039000001 0.88800001 0.903
-0.035 0.88800001 0.90700001
-0.030999999 0.88800001 0.90700001
-0.027000001 0.88800001 0.90700001
-0.023 0.88800001 0.90799999
-0.018999999 0.88800001 0.90899998
-0.015 0.88800001 0.90899998
-0.011 0.88800001 0.90899998
-0.0070000002 0.88800001 0.90899998
-0.003 0.88800001 0.90899998
0 0.88800001 0.90799999
0.003 0.88800001 0.90700001
0.0070000002 0.88800001 0.90700001
0.011 0.88800001 0.90600002
0.015 0.88800001 0.90399998
0.018999999 0.88800001 0.903
0.023 0.88800001 0.90100002
0.027000001 0.88800001 0.90100002
0.030999999 0.88800001 0.89999998
0.035 0.88800001 0.89999998
0.039000001 0.88800001 0.90700001
0.043000001 0.88800001 0.90600002
0.046999998 0.88800001 0.90600002
0.050999999 0.88800001 0.90600002
0.055 0.88800001 0.90600002
0.059 0.88800001 0.90200001
0.063000001 0.88800001 0.90100002
0.066 0.88800001 0.90100002
0.07 0.88800001 0.90100002
0.074000001 0.88800001 0.89999998
0.078000002 0.88800001 0.898
0.082000002 0.88800001 0.898
0.086000003 0.88800001 0.89600003
0.089000002 0.88800001 0.88999999
0.093999997 0.88800001 0.89700001
0.097999997 0.88800001 0.89999998
0.102 0.88800001 0.89999998
0.107 0.88800001 0.90799999
0.111 0.88800001 0.90799999
0.115 0.88800001 0.90700001
0.119 0.88800001 0.90700001
0.123 0.88800001 0.90600002
0.127 0.88800001 0.90600002
0.131 0.88800001 0.90499997
0.13500001 0.88800001 0.90399998
0.13699999 0.88800001 0.89399999
0.141 0.88800001 0.89300001
0.145 0.88800001 0.89600003
0.149 0.88800001 0.89200002
0.153 0.88800001 0.89099997
0.15700001 0.88800001 0.89399999
0.161 0.88800001 0.89300001
0.16500001 0.88800001 0.89300001
0.169 0.88800001 0.89300001
0.17299999 0.88800001 0.89399999
0.177 0.88800001 0.89300001
0.18099999 0.88800001 0.89200002
0.185 0.88800001 0.889
0.18700001 0.88800001 0.88200003
0.191 0.88800001 0.88099998
0.19499999 0.88800001 0.88
0.2 0.88800001 0.88599998
0.204 0.88800001 0.88700002
0.20900001 0.88800001 0.88800001
0.213 0.88800001 0.88999999
0.21699999 0.88800001 0.889
0.221 0.88800001 0.889
0.226 0.88800001 0.88999999
0.23 0.88800001 0.889
0.234 0.88800001 0.88999999
0.23800001 0.88800001 0.88999999
0.243 0.88800001 0.89399999
0.24699999 0.88800001 0.89300001
0.25099999 0.88800001 0.89200002
0.255 0.88800001 0.89200002
0.259 0.88800001 0.88999999
0.26300001 0.88800001 0.88999999
0.26899999 0.88800001 0.89399999
0.273 0.88800001 0.89300001
0.27599999 0.88800001 0.89099997
0.28099999 0.88800001 0.89300001
0.285 0.88800001 0.89200002
0.289 0.88800001 0.89099997
0.29300001 0.88800001 0.889
0.29699999 0.88800001 0.88800001
0.30199999 0.88800001 0.88999999
0.30700001 0.88800001 0.89099997
0.31099999 0.88800001 0.89200002
0.315 0.88800001 0.88999999
0.31999999 0.88800001 0.89200002
0.324 0.88800001 0.88999999
0.331 0.88800001 0.89899999
0.33500001 0.88800001 0.898
0.33899999 0.88800001 0.89600003
0.34299999 0.88800001 0.89499998
0.347 0.88800001 0.89300001
0.35100001 0.88800001 0.89200002
0.354 0.88800001 0.889
0.35800001 0.88800001 0.88700002
0.36199999 0.88800001 0.88499999
0.36500001 0.88800001 0.88099998
0.368 0.88800001 0.87900001
0.37599999 0.88800001 0.88700002
0.382 0.88800001 0.889
0.38499999 0.88800001 0.88700002
0.389 0.88800001 0.88599998
0.39399999 0.88800001 0.88599998
0.40000001 0.88800001 0.88800001
0.40400001 0.88800001 0.88800001
0.412 0.88800001 0.89399999
0.41600001 0.88800001 0.89200002
0.41999999 0.88800001 0.88999999
0.42399999 0.88800001 0.889
0.42699999 0.88800001 0.88499999
0.43000001 0.88800001 0.88300002
0.435 0.88800001 0.88200003
0.44 0.88800001 0.884
0.44400001 0.88800001 0.88200003
0.449 0.88800001 0.88200003
0.46000001 0.88800001 0.89399999
0.46399999 0.88800001 0.89200002
0.46799999 0.88800001 0.89099997
0.47299999 0.88800001 0.88999999
0.477 0.88800001 0.88800001
0.48100001 0.88800001 0.88599998
0.48500001 0.88800001 0.88499999
0.48899999 0.88800001 0.88300002
0.493 0.88800001 0.88099998
0.50099999 0.88800001 0.88599998
0.505 0.88800001 0.884
0.50999999 0.88800001 0.88499999
0.51599997 0.88800001 0.88499999
0.51800001 0.88800001 0.88
0.52200001 0.88800001 0.87800002
0.52600002 0.88800001 0.87599999
0.53500003 0.88800001 0.88300002
0.537 0.88800001 0.87599999
0.54299998 0.88800001 0.87699997
0.54699999 0.88800001 0.87599999
0.55299997 0.88800001 0.87699997
0.55500001 0.88800001 0.87199998
0.55900002 0.88800001 0.86900002
0.56800002 0.88800001 0.87400001
0.57800001 0.88800001 0.88200003
0.58200002 0.88800001 0.87900001
0.58700001 0.88800001 0.87900001
0.59100002 0.88800001 0.87699997
0.59600002 0.88800001 0.875
0.60000002 0.88800001 0.87400001
0.611 0.88800001 0.88
0.60900003 0.88800001 0.86900002
0.62199998 0.88800001 0.88099998
0.62800002 0.88800001 0.88099998
0.63200003 0.88800001 0.87800002
0.639 0.88800001 0.88
0.64300001 0.88800001 0.87699997
0.648 0.88800001 0.87599999
0.65399998 0.88800001 0.87599999
0.66100001 0.88800001 0.87800002
0.66799998 0.88800001 0.87800002
0.67799997 0.88800001 0.88300002
0.68300003 0.88800001 0.88300002
0.68800002 0.88800001 0.88099998
0.69499999 0.88800001 0.88099998
0.699 0.88800001 0.87800002
0.70200002 0.88800001 0.875
0.708 0.88800001 0.875
0.70899999 0.88800001 0.86799997
0.713 0.88800001 0.86400002
0.71799999 0.88800001 0.86299998
0.72600001 0.88800001 0.866
0.74000001 0.88800001 0.87400001
0.75 0.88800001 0.87800002
0.755 0.88800001 0.87599999
0.759 0.88800001 0.87300003
0.76899999 0.88800001 0.87699997
0.773 0.88800001 0.87400001
0.778 0.88800001 0.87199998
0.78200001 0.88800001 0.86799997
0.792 0.88800001 0.87199998
0.79699999 0.88800001 0.87
0.801 0.88800001 0.86699998
0.80900002 0.88800001 0.86799997
0.81900001 0.88800001 0.87099999
0.824 0.88800001 0.86799997
0.833 0.88800001 0.87
0.83700001 0.88800001 0.86699998
0.847 0.88800001 0.86900002
0.85299999 0.88800001 0.86799997
0.85799998 0.88800001 0.86500001
0.87099999 0.88800001 0.87099999
0.88099998 0.88800001 0.87300003
0.88599998 0.88800001 0.87099999
0.89200002 0.88800001 0.86900002
0.90899998 0.88800001 0.87800002
0.91399997 0.88800001 0.875
0.91799998 0.88800001 0.87099999
0.92299998 0.88800001 0.86799997
0.92699999 0.88800001 0.86400002
0.93900001 0.88800001 0.86799997
0.95099998 0.88800001 0.87099999
0.95899999 0.88800001 0.87099999
0.96600002 0.88800001 0.87
0.97000003 0.88800001 0.866
0.98100001 0.88800001 0.86799997
0.98699999 0.88800001 0.866
0.99800003 0.88800001 0.86699998
1.003 0.88800001 0.86400002
1.013 0.88800001 0.86500001
1.022 0.88800001 0.86500001
1.029 0.88800001 0.86299998
1.034 0.88800001 0.86000001
1.0420001 0.88800001 0.85900003
1.05 0.88800001 0.85699999
1.0549999 0.88800001 0.85399997
1.076 0.88800001 0.86299998
1.082 0.88800001 0.86000001
1.091 0.88800001 0.86000001
1.097 0.88800001 0.85699999
1.102 0.88800001 0.85299999
1.113 0.88800001 0.85399997
1.12 0.88800001 0.852
1.136 0.88800001 0.85600001
1.148 0.88800001 0.85699999
1.159 0.88800001 0.85799998
1.17 0.88800001 0.85699999
1.183 0.88800001 0.85900003
1.188 0.88800001 0.85500002
1.196 0.88800001 0.85299999
1.2130001 0.88800001 0.85699999
1.217 0.88800001 0.852
1.226 0.88800001 0.85100001
1.23 0.88800001 0.84500003
1.255 0.88800001 0.85399997
1.263 0.88800001 0.852
1.274 0.88800001 0.85100001
1.28 0.88800001 0.847
1.29 0.88800001 0.84600002
1.304 0.88800001 0.84600002
1.3099999 0.88800001 0.84200001
1.323 0.88800001 0.84299999
1.336 0.88800001 0.84299999
1.345 0.88800001 0.83999997
1.369 0.88800001 0.847
1.373 0.88800001 0.84100002
1.378 0.88800001 0.83600003
1.385 0.88800001 0.83200002
1.402 0.88800001 0.83399999
1.419 0.88800001 0.83600003
1.425 0.88800001 0.83099997
1.437 0.88800001 0.82999998
1.456 0.88800001 0.83200002
1.469 0.88800001 0.83099997
1.472 0.88800001 0.824
1.485 0.88800001 0.82300001
1.5 0.88800001 0.82200003
1.53 0.88800001 0.83099997
1.535 0.88800001 0.824
1.55 0.88800001 0.824
1.576 0.88800001 0.829
1.585 0.88800001 0.82499999
1.6109999 0.88800001 0.82999998
1.631 0.88800001 0.83099997
1.637 0.88800001 0.82499999
1.647 0.88800001 0.82099998
1.66 0.88800001 0.81800002
1.677 0.88800001 0.81800002
1.707 0.88800001 0.82300001
1.727 0.88800001 0.82300001
1.7410001 0.88800001 0.82099998
1.7640001 0.88800001 0.82200003
1.774 0.88800001 0.81800002
1.808 0.88800001 0.82300001
1.818 0.88800001 0.81800002
1.836 0.88800001 0.81699997
1.84 0.88800001 0.80900002
1.867 0.88800001 0.81099999
1.878 0.88800001 0.80699998
1.8940001 0.88800001 0.80400002
1.9170001 0.88800001 0.80299997
1.954 0.88800001 0.80900002
1.9579999 0.88800001 0.801
1.975 0.88800001 0.79799998
2.01 0.88800001 0.80199999
2.03 0.88800001 0.79900002
2.069 0.88800001 0.80400002
2.073 0.88800001 0.79500002
2.099 0.88800001 0.79500002
2.1289999 0.88800001 0.796
2.148 0.88800001 0.792
2.165 0.88800001 0.78799999
2.1989999 0.88800001 0.78899997
2.237 0.88800001 0.792
2.2490001 0.88800001 0.78500003
2.286 0.88800001 0.787
2.2920001 0.88800001 0.778
2.3239999 0.88800001 0.77700001
2.3599999 0.88800001 0.778
2.3789999 0.88800001 0.773
2.405 0.88800001 0.76999998
2.4449999 0.88800001 0.77100003
2.483 0.88800001 0.77100003
2.503 0.88800001 0.76499999
2.5209999 0.88800001 0.75800002
2.5480001 0.88800001 0.75400001
2.602 0.88800001 0.75800002
2.6099999 0.88800001 0.74800003
2.638 0.88800001 0.74400002
2.7 0.88800001 0.74800003
2.717 0.88800001 0.74000001
2.7550001 0.88800001 0.73799998
2.8039999 0.88800001 0.73799998
2.8570001 0.88800001 0.73799998
2.8929999 0.88800001 0.73400003
2.948 0.88800001 0.73500001
2.9909999 0.88800001 0.73199999
3.04 0.88800001 0.72899997
3.076 0.88800001 0.72399998
3.1359999 0.88800001 0.72399998
3.1849999 0.88800001 0.72000003
3.247 0.88800001 0.71899998
3.293 0.88800001 0.71499997
3.349 0.88800001 0.71100003
-5.974 0.89600003 1.2690001
-5.7849998 0.89600003 1.256
-5.6490002 0.89600003 1.252
-5.4580002 0.89600003 1.235
-5.296 0.89600003 1.222
-5.164 0.89600003 1.216
-5.053 0.89600003 1.2130001
-4.9499998 0.89600003 1.211
-4.7919998 0.89600003 1.194
-4.7140002 0.89600003 1.197
-4.599 0.89600003 1.189
-4.5180001 0.89600003 1.189
-4.4120002 0.89600003 1.182
-4.3169999 0.89600003 1.177
-4.2309999 0.89600003 1.173
-4.1370001 0.89600003 1.166
-4.0650001 0.89600003 1.165
-3.9849999 0.89600003 1.161
-3.881 0.89600003 1.149
-3.7980001 0.89600003 1.143
-3.7420001 0.89600003 1.1440001
-3.665 0.89600003 1.138
-3.602 0.89600003 1.135
-3.5439999 0.89600003 1.1339999
-3.464 0.89600003 1.125
-3.3870001 0.89600003 1.117
-3.316 0.89600003 1.109
-3.263 0.89600003 1.107
-3.233 0.89600003 1.113
-3.1930001 0.89600003 1.115
-3.1470001 0.89600003 1.114
-3.0869999 0.89600003 1.108
-3.039 0.89600003 1.1059999
-2.9979999 0.89600003 1.1059999
-2.947 0.89600003 1.102
-2.8959999 0.89600003 1.097
-2.869 0.89600003 1.101
-2.812 0.89600003 1.0930001
-2.7809999 0.89600003 1.095
-2.76 0.89600003 1.101
-2.698 0.89600003 1.09
-2.6819999 0.89600003 1.097
-2.6329999 0.89600003 1.091
-2.5840001 0.89600003 1.0829999
-2.573 0.89600003 1.092
-2.5420001 0.89600003 1.092
-2.4990001 0.89600003 1.086
-2.4560001 0.89600003 1.08
-2.4260001 0.89600003 1.08
-2.3840001 0.89600003 1.074
-2.345 0.89600003 1.069
-2.3280001 0.89600003 1.073
-2.29 0.89600003 1.067
-2.28 0.89600003 1.075
-2.237 0.89600003 1.067
-2.2119999 0.89600003 1.066
-2.181 0.89600003 1.063
-2.174 0.89600003 1.072
-2.1289999 0.89600003 1.061
-2.0940001 0.89600003 1.0549999
-2.072 0.89600003 1.0549999
-2.043 0.89600003 1.052
-2.017 0.89600003 1.05
-2 0.89600003 1.052
-1.971 0.89600003 1.048
-1.9579999 0.89600003 1.052
-1.934 0.89600003 1.05
-1.913 0.89600003 1.049
-1.897 0.89600003 1.051
-1.8789999 0.89600003 1.052
-1.8430001 0.89600003 1.0420001
-1.826 0.89600003 1.044
-1.813 0.89600003 1.0470001
-1.808 0.89600003 1.054
-1.768 0.89600003 1.041
-1.758 0.89600003 1.046
-1.727 0.89600003 1.0369999
-1.72 0.89600003 1.043
-1.696 0.89600003 1.039
-1.669 0.89600003 1.0319999
-1.656 0.89600003 1.034
-1.632 0.89600003 1.029
-1.61 0.89600003 1.025
-1.597 0.89600003 1.027
-1.574 0.89600003 1.022
-1.564 0.89600003 1.025
-1.546 0.89600003 1.023
-1.531 0.89600003 1.023
-1.522 0.89600003 1.026
-1.512 0.89600003 1.029
-1.5 0.89600003 1.031
-1.476 0.89600003 1.024
-1.459 0.89600003 1.022
-1.447 0.89600003 1.023
-1.426 0.89600003 1.017
-1.4170001 0.89600003 1.02
-1.41 0.89600003 1.024
-1.3789999 0.89600003 1.011
-1.375 0.89600003 1.017
-1.3660001 0.89600003 1.02
-1.3559999 0.89600003 1.022
-1.334 0.89600003 1.0140001
-1.324 0.89600003 1.016
-1.299 0.89600003 1.006
-1.293 0.89600003 1.01
-1.28 0.89600003 1.0089999
-1.273 0.89600003 1.012
-1.261 0.89600003 1.012
-1.249 0.89600003 1.011
-1.229 0.89600003 1.0039999
-1.219 0.89600003 1.005
-1.212 0.89600003 1.008
-1.201 0.89600003 1.007
-1.186 0.89600003 1.0039999
-1.178 0.89600003 1.006
-1.166 0.89600003 1.005
-1.155 0.89600003 1.0039999
-1.137 0.89600003 0.99699998
-1.124 0.89600003 0.995
-1.119 0.89600003 0.99900001
-1.107 0.89600003 0.99699998
-1.097 0.89600003 0.99599999
-1.092 0.89600003 1.001
-1.086 0.89600003 1.0039999
-1.067 0.89600003 0.995
-1.059 0.89600003 0.99599999
-1.043 0.89600003 0.99000001
-1.0369999 0.89600003 0.99299997
-1.031 0.89600003 0.99599999
-1.02 0.89600003 0.99299997
-1.01 0.89600003 0.99299997
-1.006 0.89600003 0.99699998
-0.98500001 0.89600003 0.98500001
-0.98000002 0.89600003 0.98900002
-0.97000003 0.89600003 0.98699999
-0.958 0.89600003 0.98400003
-0.95300001 0.89600003 0.986
-0.94800001 0.89600003 0.99000001
-0.94300002 0.89600003 0.99299997
-0.93699998 0.89600003 0.99599999
-0.91900003 0.89600003 0.98500001
-0.91000003 0.89600003 0.98400003
-0.90499997 0.89600003 0.98799998
-0.89700001 0.89600003 0.98799998
-0.889 0.89600003 0.98799998
-0.87800002 0.89600003 0.98400003
-0.87099999 0.89600003 0.98400003
-0.866 0.89600003 0.98699999
-0.85799998 0.89600003 0.98699999
-0.84500003 0.89600003 0.98100001
-0.833 0.89600003 0.97600001
-0.82599998 0.89600003 0.97600001
-0.81999999 0.89600003 0.97799999
-0.81599998 0.89600003 0.98100001
-0.80599999 0.89600003 0.97799999
-0.801 0.89600003 0.98000002
-0.79500002 0.89600003 0.98199999
-0.79000002 0.89600003 0.98400003
-0.77600002 0.89600003 0.97500002
-0.76999998 0.89600003 0.97600001
-0.764 0.89600003 0.97799999
-0.75300002 0.89600003 0.97299999
-0.74800003 0.89600003 0.97500002
-0.74000001 0.89600003 0.97399998
-0.73299998 0.89600003 0.97299999
-0.72600001 0.89600003 0.972
-0.72000003 0.89600003 0.97299999
-0.71399999 0.89600003 0.97399998
-0.708 0.89600003 0.97399998
-0.69499999 0.89600003 0.96499997
-0.69700003 0.89600003 0.977
-0.685 0.89600003 0.96899998
-0.68000001 0.89600003 0.972
-0.66500002 0.89600003 0.95899999
-0.66100001 0.89600003 0.96200001
-0.65499997 0.89600003 0.96200001
-0.64899999 0.89600003 0.963
-0.64499998 0.89600003 0.96600002
-0.63300002 0.89600003 0.95599997
-0.62800002 0.89600003 0.958
-0.62400001 0.89600003 0.96100003
-0.616 0.89600003 0.958
-0.60799998 0.89600003 0.95499998
-0.60299999 0.89600003 0.95599997
-0.59899998 0.89600003 0.95899999
-0.58999997 0.89600003 0.954
-0.58600003 0.89600003 0.95700002
-0.57300001 0.89600003 0.94400001
-0.56699997 0.89600003 0.94300002
-0.56 0.89600003 0.94199997
-0.55599999 0.89600003 0.94400001
-0.55000001 0.89600003 0.94400001
-0.54500002 0.89600003 0.94400001
-0.53799999 0.89600003 0.94199997
-0.53399998 0.89600003 0.94400001
-0.52899998 0.89600003 0.94499999
-0.52499998 0.89600003 0.94700003
-0.51999998 0.89600003 0.949
-0.51700002 0.89600003 0.95200002
-0.51300001 0.89600003 0.954
-0.50700003 0.89600003 0.95300001
-0.49900001 0.89600003 0.94800001
-0.49399999 0.89600003 0.94999999
-0.48800001 0.89600003 0.94800001
-0.48100001 0.89600003 0.94400001
-0.47600001 0.89600003 0.94499999
-0.47 0.89600003 0.94400001
-0.46399999 0.89600003 0.94199997
-0.458 0.89600003 0.94099998
-0.45500001 0.89600003 0.94400001
-0.44999999 0.89600003 0.94499999
-0.44600001 0.89600003 0.94599998
-0.44100001 0.89600003 0.94599998
-0.43700001 0.89600003 0.949
-0.43200001 0.89600003 0.949
-0.42399999 0.89600003 0.94099998
-0.419 0.89600003 0.94199997
-0.41499999 0.89600003 0.94400001
-0.40900001 0.89600003 0.94199997
-0.405 0.89600003 0.94400001
-0.40000001 0.89600003 0.94300002
-0.39399999 0.89600003 0.93900001
-0.389 0.89600003 0.94099998
-0.384 0.89600003 0.93900001
-0.38 0.89600003 0.94099998
-0.37599999 0.89600003 0.94199997
-0.36899999 0.89600003 0.93599999
-0.36399999 0.89600003 0.93800002
-0.359 0.89600003 0.93699998
-0.35499999 0.89600003 0.93800002
-0.34999999 0.89600003 0.93599999
-0.345 0.89600003 0.935
-0.338 0.89600003 0.93099999
-0.33500001 0.89600003 0.93300003
-0.331 0.89600003 0.935
-0.32600001 0.89600003 0.935
-0.322 0.89600003 0.93699998
-0.317 0.89600003 0.935
-0.31299999 0.89600003 0.93599999
-0.308 0.89600003 0.93599999
-0.30399999 0.89600003 0.93699998
-0.30000001 0.89600003 0.93900001
-0.296 0.89600003 0.93900001
-0.28999999 0.89600003 0.935
-0.28400001 0.89600003 0.93099999
-0.28 0.89600003 0.93199998
-0.27599999 0.89600003 0.93300003
-0.27200001 0.89600003 0.935
-0.26800001 0.89600003 0.93599999
-0.264 0.89600003 0.93699998
-0.25799999 0.89600003 0.93300003
-0.252 0.89600003 0.92699999
-0.248 0.89600003 0.926
-0.242 0.89600003 0.91900003
-0.23800001 0.89600003 0.92000002
-0.234 0.89600003 0.921
-0.23 0.89600003 0.92500001
-0.226 0.89600003 0.926
-0.222 0.89600003 0.92699999
-0.21699999 0.89600003 0.92299998
-0.213 0.89600003 0.92400002
-0.20900001 0.89600003 0.92500001
-0.205 0.89600003 0.92699999
-0.20100001 0.89600003 0.92799997
-0.197 0.89600003 0.92900002
-0.191 0.89600003 0.921
-0.18700001 0.89600003 0.92199999
-0.182 0.89600003 0.91799998
-0.178 0.89600003 0.91600001
-0.17399999 0.89600003 0.917
-0.169 0.89600003 0.91600001
-0.164 0.89600003 0.91100001
-0.16 0.89600003 0.90899998
-0.155 0.89600003 0.90600002
-0.15000001 0.89600003 0.90100002
-0.146 0.89600003 0.90200001
-0.142 0.89600003 0.90200001
-0.139 0.89600003 0.90899998
-0.13500001 0.89600003 0.90899998
-0.132 0.89600003 0.91000003
-0.127 0.89600003 0.91000003
-0.123 0.89600003 0.91000003
-0.119 0.89600003 0.90499997
-0.115 0.89600003 0.90600002
-0.111 0.89600003 0.912
-0.107 0.89600003 0.90700001
-0.103 0.89600003 0.90700001
-0.098999999 0.89600003 0.90799999
-0.094999999 0.89600003 0.912
-0.090999998 0.89600003 0.90700001
-0.086999997 0.89600003 0.90600002
-0.082999997 0.89600003 0.90799999
-0.079000004 0.89600003 0.90799999
-0.075000003 0.89600003 0.903
-0.071000002 0.89600003 0.90899998
-0.067000002 0.89600003 0.91100001
-0.063000001 0.89600003 0.91100001
-0.059 0.89600003 0.90899998
-0.055 0.89600003 0.912
-0.050999999 0.89600003 0.912
-0.046999998 0.89600003 0.90899998
-0.043000001 0.89600003 0.91299999
-0.039000001 0.89600003 0.91600001
-0.035999998 0.89600003 0.91600001
-0.030999999 0.89600003 0.91299999
-0.028000001 0.89600003 0.91600001
-0.023 0.89600003 0.91299999
-0.018999999 0.89600003 0.91299999
-0.015 0.89600003 0.91299999
-0.011 0.89600003 0.89700001
-0.0070000002 0.89600003 0.89700001
-0.003 0.89600003 0.898
0 0.89600003 0.89899999
0.003 0.89600003 0.90100002
0.0070000002 0.89600003 0.90100002
0.011 0.89600003 0.90200001
0.015 0.89600003 0.903
0.018999999 0.89600003 0.90200001
0.023 0.89600003 0.90200001
0.027000001 0.89600003 0.90200001
0.030999999 0.89600003 0.90200001
0.035 0.89600003 0.90200001
0.039000001 0.89600003 0.898
0.043000001 0.89600003 0.89700001
0.046999998 0.89600003 0.89700001
0.050000001 0.89600003 0.89700001
0.054000001 0.89600003 0.89499998
0.057999998 0.89600003 0.89499998
0.061999999 0.89600003 0.89700001
0.066 0.89600003 0.89700001
0.07 0.89600003 0.89700001
0.074000001 0.89600003 0.898
0.078000002 0.89600003 0.898
0.082000002 0.89600003 0.898
0.086000003 0.89600003 0.89899999
0.090000004 0.89600003 0.89999998
0.093999997 0.89600003 0.89999998
0.097999997 0.89600003 0.89899999
0.102 0.89600003 0.89899999
0.106 0.89600003 0.90200001
0.11 0.89600003 0.898
0.113 0.89600003 0.89399999
0.117 0.89600003 0.889
0.121 0.89600003 0.89300001
0.125 0.89600003 0.89300001
0.12899999 0.89600003 0.89399999
0.134 0.89600003 0.89899999
0.138 0.89600003 0.898
0.142 0.89600003 0.89700001
0.146 0.89600003 0.89700001
0.15000001 0.89600003 0.89600003
0.153 0.89600003 0.89399999
0.15700001 0.89600003 0.89499998
0.161 0.89600003 0.89399999
0.16500001 0.89600003 0.89399999
0.169 0.89600003 0.89399999
0.17299999 0.89600003 0.89300001
0.175 0.89600003 0.884
0.17900001 0.89600003 0.88300002
0.183 0.89600003 0.88300002
0.191 0.89600003 0.898
0.19499999 0.89600003 0.89899999
0.199 0.89600003 0.89899999
0.20299999 0.89600003 0.898
0.206 0.89600003 0.89600003
0.211 0.89600003 0.89600003
0.215 0.89600003 0.89499998
0.21799999 0.89600003 0.89399999
0.222 0.89600003 0.89300001
0.226 0.89600003 0.89200002
0.23 0.89600003 0.89099997
0.234 0.89600003 0.88999999
0.23899999 0.89600003 0.89200002
0.243 0.89600003 0.89300001
0.24699999 0.89600003 0.89200002
0.25099999 0.89600003 0.89200002
0.255 0.89600003 0.89099997
0.259 0.89600003 0.889
0.26300001 0.89600003 0.88800001
0.26699999 0.89600003 0.88700002
0.271 0.89600003 0.88800001
0.27500001 0.89600003 0.88599998
0.27900001 0.89600003 0.88599998
0.28299999 0.89600003 0.884
0.287 0.89600003 0.884
0.29100001 0.89600003 0.88300002
0.296 0.89600003 0.88700002
0.30199999 0.89600003 0.88999999
0.30199999 0.89600003 0.87900001
0.30899999 0.89600003 0.88700002
0.31600001 0.89600003 0.89300001
0.31999999 0.89600003 0.89200002
0.324 0.89600003 0.88999999
0.329 0.89600003 0.89399999
0.333 0.89600003 0.89200002
0.33500001 0.89600003 0.88599998
0.33899999 0.89600003 0.88499999
0.34299999 0.89600003 0.88300002
0.347 0.89600003 0.88200003
0.35299999 0.89600003 0.88700002
0.35699999 0.89600003 0.88499999
0.36199999 0.89600003 0.88599998
0.366 0.89600003 0.88499999
0.37 0.89600003 0.88300002
0.37400001 0.89600003 0.88099998
0.37799999 0.89600003 0.88
0.38600001 0.89600003 0.88800001
0.38999999 0.89600003 0.88599998
0.39399999 0.89600003 0.88700002
0.40000001 0.89600003 0.88800001
0.40400001 0.89600003 0.88700002
0.40900001 0.89600003 0.889
0.41299999 0.89600003 0.88700002
0.41999999 0.89600003 0.89099997
0.42399999 0.89600003 0.889
0.428 0.89600003 0.88800001
0.43099999 0.89600003 0.884
0.435 0.89600003 0.88200003
0.43900001 0.89600003 0.88
0.442 0.89600003 0.87800002
0.44800001 0.89600003 0.88099998
0.45500001 0.89600003 0.88300002
0.458 0.89600003 0.88099998
0.46200001 0.89600003 0.87900001
0.46599999 0.89600003 0.87699997
0.47499999 0.89600003 0.884
0.47999999 0.89600003 0.88499999
0.48699999 0.89600003 0.88800001
0.49200001 0.89600003 0.88800001
0.49900001 0.89600003 0.89099997
0.5 0.89600003 0.884
0.50300002 0.89600003 0.88
0.50800002 0.89600003 0.88
0.51200002 0.89600003 0.87800002
0.51599997 0.89600003 0.87599999
0.51999998 0.89600003 0.87400001
0.53200001 0.89600003 0.88599998
0.53600001 0.89600003 0.88300002
0.54000002 0.89600003 0.88099998
0.54400003 0.89600003 0.87900001
0.54299998 0.89600003 0.87
0.54699999 0.89600003 0.86699998
0.55500001 0.89600003 0.87199998
0.56599998 0.89600003 0.88
0.56999999 0.89600003 0.87800002
0.57599998 0.89600003 0.87900001
0.58200002 0.89600003 0.87900001
0.58600003 0.89600003 0.87699997
0.59299999 0.89600003 0.88
0.597 0.89600003 0.87699997
0.602 0.89600003 0.87599999
0.60699999 0.89600003 0.875
0.61199999 0.89600003 0.87400001
0.61500001 0.89600003 0.87099999
0.61900002 0.89600003 0.86799997
0.62300003 0.89600003 0.86500001
0.63499999 0.89600003 0.875
0.64099997 0.89600003 0.87400001
0.64700001 0.89600003 0.875
0.65799999 0.89600003 0.88099998
0.66399997 0.89600003 0.88099998
0.66799998 0.89600003 0.87900001
0.67400002 0.89600003 0.87900001
0.67900002 0.89600003 0.87699997
0.68800002 0.89600003 0.88099998
0.69400001 0.89600003 0.88
0.699 0.89600003 0.87800002
0.704 0.89600003 0.87800002
0.708 0.89600003 0.875
0.71600002 0.89600003 0.87599999
0.722 0.89600003 0.87599999
0.72600001 0.89600003 0.87300003
0.73000002 0.89600003 0.87
0.73799998 0.89600003 0.87199998
0.74199998 0.89600003 0.86900002
0.75099999 0.89600003 0.87099999
0.75700003 0.89600003 0.87099999
0.76099998 0.89600003 0.86799997
0.76899999 0.89600003 0.87
0.77700001 0.89600003 0.87099999
0.78200001 0.89600003 0.86799997
0.787 0.89600003 0.866
0.79500002 0.89600003 0.86799997
0.80400002 0.89600003 0.87
0.81599998 0.89600003 0.875
0.82499999 0.89600003 0.87699997
0.83200002 0.89600003 0.87599999
0.838 0.89600003 0.875
0.84200001 0.89600003 0.87199998
0.847 0.89600003 0.86900002
0.85699999 0.89600003 0.87199998
0.86299998 0.89600003 0.87
0.86799997 0.89600003 0.86799997
0.87199998 0.89600003 0.86400002
0.88499999 0.89600003 0.87
0.89200002 0.89600003 0.86900002
0.89700001 0.89600003 0.866
0.91600001 0.89600003 0.87699997
0.921 0.89600003 0.87400001
0.93000001 0.89600003 0.87400001
0.93400002 0.89600003 0.87099999
0.94 0.89600003 0.86900002
0.94499999 0.89600003 0.866
0.95499998 0.89600003 0.86799997
0.96600002 0.89600003 0.87
0.97000003 0.89600003 0.866
0.97399998 0.89600003 0.86199999
0.97799999 0.89600003 0.85699999
0.991 0.89600003 0.86199999
1.012 0.89600003 0.87199998
1.018 0.89600003 0.87
1.024 0.89600003 0.86699998
1.03 0.89600003 0.86400002
1.034 0.89600003 0.86000001
1.04 0.89600003 0.85699999
1.05 0.89600003 0.85699999
1.057 0.89600003 0.85600001
1.066 0.89600003 0.85500002
1.0779999 0.89600003 0.85699999
1.084 0.89600003 0.85399997
1.1 0.89600003 0.86000001
1.1059999 0.89600003 0.85699999
1.113 0.89600003 0.85399997
1.1160001 0.89600003 0.84899998
1.133 0.89600003 0.85299999
1.1440001 0.89600003 0.85399997
1.149 0.89600003 0.85000002
1.17 0.89600003 0.85699999
1.182 0.89600003 0.85900003
1.188 0.89600003 0.85500002
1.2 0.89600003 0.85500002
1.2079999 0.89600003 0.85399997
1.219 0.89600003 0.85399997
1.237 0.89600003 0.85799998
1.244 0.89600003 0.85500002
1.248 0.89600003 0.84899998
1.267 0.89600003 0.85500002
1.272 0.89600003 0.85000002
1.288 0.89600003 0.852
1.3 0.89600003 0.852
1.306 0.89600003 0.84799999
1.316 0.89600003 0.84600002
1.321 0.89600003 0.84100002
1.337 0.89600003 0.84299999
1.352 0.89600003 0.84500003
1.358 0.89600003 0.83999997
1.368 0.89600003 0.838
1.3789999 0.89600003 0.83700001
1.383 0.89600003 0.83099997
1.397 0.89600003 0.83099997
1.413 0.89600003 0.83200002
1.4349999 0.89600003 0.83700001
1.4400001 0.89600003 0.83099997
1.455 0.89600003 0.83099997
1.471 0.89600003 0.83200002
1.475 0.89600003 0.82599998
1.498 0.89600003 0.82999998
1.521 0.89600003 0.83399999
1.531 0.89600003 0.83099997
1.54 0.89600003 0.82700002
1.561 0.89600003 0.82999998
1.575 0.89600003 0.82800001
1.584 0.89600003 0.824
1.608 0.89600003 0.82800001
1.618 0.89600003 0.824
1.641 0.89600003 0.82700002
1.664 0.89600003 0.829
1.686 0.89600003 0.83099997
1.692 0.89600003 0.82499999
1.711 0.89600003 0.82499999
1.725 0.89600003 0.82300001
1.73 0.89600003 0.81599998
1.768 0.89600003 0.824
1.781 0.89600003 0.82099998
1.8 0.89600003 0.81999999
1.827 0.89600003 0.82300001
1.8329999 0.89600003 0.81599998
1.853 0.89600003 0.815
1.872 0.89600003 0.81400001
1.8789999 0.89600003 0.80699998
1.9069999 0.89600003 0.80900002
1.932 0.89600003 0.81
1.938 0.89600003 0.80199999
1.9630001 0.89600003 0.80299997
1.98 0.89600003 0.80000001
2.003 0.89600003 0.79900002
2.0420001 0.89600003 0.80400002
2.0510001 0.89600003 0.79699999
2.0929999 0.89600003 0.80299997
2.0969999 0.89600003 0.79400003
2.119 0.89600003 0.792
2.1470001 0.89600003 0.792
2.171 0.89600003 0.79000002
2.197 0.89600003 0.78899997
2.214 0.89600003 0.78399998
2.2539999 0.89600003 0.787
2.2820001 0.89600003 0.78500003
2.299 0.89600003 0.77999997
2.3280001 0.89600003 0.778
2.365 0.89600003 0.77999997
2.381 0.89600003 0.773
2.4200001 0.89600003 0.77399999
2.4549999 0.89600003 0.77399999
2.484 0.89600003 0.77100003
2.516 0.89600003 0.76899999
2.55 0.89600003 0.76700002
2.563 0.89600003 0.759
2.6029999 0.89600003 0.75800002
2.6329999 0.89600003 0.755
2.6719999 0.89600003 0.75300002
2.7019999 0.89600003 0.74900001
2.723 0.89600003 0.74199998
2.7709999 0.89600003 0.74199998
2.8310001 0.89600003 0.745
2.8959999 0.89600003 0.74900001
2.908 0.89600003 0.73799998
2.95 0.89600003 0.73500001
2.9990001 0.89600003 0.73299998
3.027 0.89600003 0.72600001
3.076 0.89600003 0.72399998
3.112 0.89600003 0.71799999
3.1849999 0.89600003 0.72000003
3.257 0.89600003 0.722
3.3050001 0.89600003 0.71700001
3.3469999 0.89600003 0.71100003
-5.9109998 0.90399998 1.256
-5.7340002 0.90399998 1.245
-5.5650001 0.90399998 1.233
-5.3959999 0.90399998 1.221
-5.2600002 0.90399998 1.214
-5.1360002 0.90399998 1.209
-5.0190001 0.90399998 1.205
-4.9000001 0.90399998 1.199
-4.7579999 0.90399998 1.186
-4.6729999 0.90399998 1.186
-4.5710001 0.90399998 1.182
-4.4809999 0.90399998 1.179
-4.4039998 0.90399998 1.1799999
-4.3000002 0.90399998 1.1720001
-4.2069998 0.90399998 1.166
-4.1110001 0.90399998 1.159
-4.0149999 0.90399998 1.151
-3.9549999 0.90399998 1.152
-3.8599999 0.90399998 1.143
-3.7880001 0.90399998 1.14
-3.711 0.90399998 1.1339999
-3.6600001 0.90399998 1.136
-3.566 0.90399998 1.124
-3.5179999 0.90399998 1.126
-3.4590001 0.90399998 1.124
-3.3640001 0.90399998 1.109
-3.313 0.90399998 1.108
-3.2679999 0.90399998 1.109
-3.23 0.90399998 1.112
-3.1819999 0.90399998 1.1109999
-3.1270001 0.90399998 1.107
-3.0710001 0.90399998 1.102
-3.0450001 0.90399998 1.108
-2.973 0.90399998 1.096
-2.927 0.90399998 1.094
-2.9100001 0.90399998 1.102
-2.8529999 0.90399998 1.095
-2.8169999 0.90399998 1.095
-2.7639999 0.90399998 1.0880001
-2.7409999 0.90399998 1.0930001
-2.697 0.90399998 1.089
-2.6459999 0.90399998 1.082
-2.615 0.90399998 1.0829999
-2.595 0.90399998 1.0880001
-2.55 0.90399998 1.082
-2.52 0.90399998 1.082
-2.4809999 0.90399998 1.079
-2.4530001 0.90399998 1.079
-2.4130001 0.90399998 1.074
-2.3789999 0.90399998 1.071
-2.3540001 0.90399998 1.073
-2.3039999 0.90399998 1.062
-2.2820001 0.90399998 1.064
-2.2609999 0.90399998 1.066
-2.2249999 0.90399998 1.061
-2.1949999 0.90399998 1.059
-2.175 0.90399998 1.061
-2.1329999 0.90399998 1.052
-2.122 0.90399998 1.058
-2.082 0.90399998 1.049
-2.0639999 0.90399998 1.051
-2.0450001 0.90399998 1.053
-2.0090001 0.90399998 1.046
-1.995 0.90399998 1.049
-1.9680001 0.90399998 1.046
-1.947 0.90399998 1.046
-1.926 0.90399998 1.045
-1.915 0.90399998 1.05
-1.883 0.90399998 1.043
-1.868 0.90399998 1.046
-1.852 0.90399998 1.048
-1.831 0.90399998 1.046
-1.79 0.90399998 1.033
-1.772 0.90399998 1.033
-1.753 0.90399998 1.0319999
-1.739 0.90399998 1.034
-1.732 0.90399998 1.04
-1.7029999 0.90399998 1.033
-1.6799999 0.90399998 1.029
-1.673 0.90399998 1.035
-1.646 0.90399998 1.028
-1.6289999 0.90399998 1.028
-1.62 0.90399998 1.0319999
-1.58 0.90399998 1.016
-1.573 0.90399998 1.021
-1.563 0.90399998 1.025
-1.5420001 0.90399998 1.021
-1.5369999 0.90399998 1.027
-1.517 0.90399998 1.023
-1.498 0.90399998 1.02
-1.492 0.90399998 1.025
-1.475 0.90399998 1.023
-1.4630001 0.90399998 1.024
-1.456 0.90399998 1.029
-1.424 0.90399998 1.016
-1.416 0.90399998 1.0190001
-1.3940001 0.90399998 1.013
-1.388 0.90399998 1.018
-1.365 0.90399998 1.01
-1.354 0.90399998 1.011
-1.332 0.90399998 1.003
-1.322 0.90399998 1.005
-1.309 0.90399998 1.005
-1.302 0.90399998 1.008
-1.289 0.90399998 1.007
-1.278 0.90399998 1.007
-1.265 0.90399998 1.006
-1.249 0.90399998 1.002
-1.244 0.90399998 1.007
-1.2359999 0.90399998 1.01
-1.219 0.90399998 1.005
-1.207 0.90399998 1.003
-1.198 0.90399998 1.005
-1.189 0.90399998 1.007
-1.179 0.90399998 1.007
-1.16 0.90399998 1
-1.154 0.90399998 1.003
-1.14 0.90399998 1
-1.124 0.90399998 0.995
-1.119 0.90399998 0.99800003
-1.113 0.90399998 1.002
-1.089 0.90399998 0.98900002
-1.085 0.90399998 0.99400002
-1.079 0.90399998 0.99699998
-1.0650001 0.90399998 0.99299997
-1.054 0.90399998 0.99199998
-1.049 0.90399998 0.99599999
-1.036 0.90399998 0.99199998
-1.029 0.90399998 0.99400002
-1.021 0.90399998 0.995
-1.0089999 0.90399998 0.991
-0.99400002 0.90399998 0.986
-0.98900002 0.90399998 0.98900002
-0.98199999 0.90399998 0.99000001
-0.972 0.90399998 0.98900002
-0.96100003 0.90399998 0.98699999
-0.95599997 0.90399998 0.99000001
-0.94999999 0.90399998 0.99199998
-0.94300002 0.90399998 0.99400002
-0.93800002 0.90399998 0.99699998
-0.92799997 0.90399998 0.995
-0.90499997 0.90399998 0.97899997
-0.89499998 0.90399998 0.97600001
-0.88999999 0.90399998 0.98000002
-0.88599998 0.90399998 0.98400003
-0.87599999 0.90399998 0.98199999
-0.86799997 0.90399998 0.98100001
-0.85500002 0.90399998 0.97500002
-0.85000002 0.90399998 0.97799999
-0.84399998 0.90399998 0.98000002
-0.83200002 0.90399998 0.97399998
-0.82700002 0.90399998 0.97600001
-0.82200003 0.90399998 0.98000002
-0.81699997 0.90399998 0.98199999
-0.80500001 0.90399998 0.977
-0.79500002 0.90399998 0.97399998
-0.79100001 0.90399998 0.97600001
-0.78600001 0.90399998 0.98000002
-0.77999997 0.90399998 0.98000002
-0.77499998 0.90399998 0.98299998
-0.76700002 0.90399998 0.98100001
-0.75700003 0.90399998 0.97799999
-0.745 0.90399998 0.97100002
-0.73699999 0.90399998 0.97000003
-0.73100001 0.90399998 0.97000003
-0.72600001 0.90399998 0.972
-0.72000003 0.90399998 0.97299999
-0.71399999 0.90399998 0.97399998
-0.70999998 0.90399998 0.97799999
-0.69800001 0.90399998 0.96899998
-0.69199997 0.90399998 0.97100002
-0.67900002 0.90399998 0.96100003
-0.66900003 0.90399998 0.95599997
-0.66500002 0.90399998 0.95899999
-0.66100001 0.90399998 0.96200001
-0.65499997 0.90399998 0.96200001
-0.64899999 0.90399998 0.963
-0.64200002 0.90399998 0.96100003
-0.63599998 0.90399998 0.96100003
-0.61799997 0.90399998 0.94300002
-0.61400002 0.90399998 0.94599998
-0.60900003 0.90399998 0.94700003
-0.60600001 0.90399998 0.95099998
-0.60100001 0.90399998 0.95300001
-0.597 0.90399998 0.95499998
-0.58600003 0.90399998 0.94800001
-0.58099997 0.90399998 0.94800001
-0.57499999 0.90399998 0.94800001
-0.56699997 0.90399998 0.94300002
-0.56099999 0.90399998 0.94300002
-0.55500001 0.90399998 0.94199997
-0.55000001 0.90399998 0.94400001
-0.542 0.90399998 0.94
-0.53799999 0.90399998 0.94199997
-0.53299999 0.90399998 0.94300002
-0.52899998 0.90399998 0.94499999
-0.51999998 0.90399998 0.93900001
-0.51599997 0.90399998 0.94
-0.50700003 0.90399998 0.935
-0.50300002 0.90399998 0.93699998
-0.49900001 0.90399998 0.93900001
-0.495 0.90399998 0.94099998
-0.49000001 0.90399998 0.94199997
-0.48100001 0.90399998 0.93400002
-0.477 0.90399998 0.93599999
-0.47299999 0.90399998 0.93800002
-0.46799999 0.90399998 0.94
-0.463 0.90399998 0.93900001
-0.45899999 0.90399998 0.94099998
-0.45500001 0.90399998 0.94300002
-0.44999999 0.90399998 0.94400001
-0.44499999 0.90399998 0.94499999
-0.44100001 0.90399998 0.94700003
-0.43200001 0.90399998 0.93900001
-0.42500001 0.90399998 0.93199998
-0.41999999 0.90399998 0.93400002
-0.41600001 0.90399998 0.93599999
-0.412 0.90399998 0.93599999
-0.40700001 0.90399998 0.93800002
-0.403 0.90399998 0.93800002
-0.39700001 0.90399998 0.93699998
-0.391 0.90399998 0.93400002
-0.38600001 0.90399998 0.93400002
-0.38100001 0.90399998 0.93199998
-0.37599999 0.90399998 0.93199998
-0.37200001 0.90399998 0.93300003
-0.36700001 0.90399998 0.93199998
-0.36300001 0.90399998 0.93300003
-0.359 0.90399998 0.935
-0.35299999 0.90399998 0.93400002
-0.34599999 0.90399998 0.926
-0.34200001 0.90399998 0.92699999
-0.33700001 0.90399998 0.92699999
-0.333 0.90399998 0.92799997
-0.329 0.90399998 0.93099999
-0.32499999 0.90399998 0.93199998
-0.31999999 0.90399998 0.93099999
-0.315 0.90399998 0.92699999
-0.31 0.90399998 0.92900002
-0.30599999 0.90399998 0.93000001
-0.30199999 0.90399998 0.93199998
-0.29800001 0.90399998 0.93300003
-0.294 0.90399998 0.93300003
-0.28999999 0.90399998 0.93400002
-0.285 0.90399998 0.935
-0.28099999 0.90399998 0.93599999
-0.27399999 0.90399998 0.92500001
-0.26899999 0.90399998 0.92500001
-0.26499999 0.90399998 0.926
-0.26100001 0.90399998 0.92699999
-0.25600001 0.90399998 0.92500001
-0.25099999 0.90399998 0.921
-0.24699999 0.90399998 0.92199999
-0.243 0.90399998 0.92299998
-0.23899999 0.90399998 0.92400002
-0.233 0.90399998 0.91900003
-0.23100001 0.90399998 0.926
-0.226 0.90399998 0.926
-0.222 0.90399998 0.92699999
-0.21799999 0.90399998 0.92799997
-0.215 0.90399998 0.93199998
-0.20999999 0.90399998 0.93000001
-0.206 0.90399998 0.92900002
-0.20100001 0.90399998 0.92799997
-0.19499999 0.90399998 0.91900003
-0.19 0.90399998 0.91500002
-0.186 0.90399998 0.91600001
-0.18099999 0.90399998 0.91399997
-0.176 0.90399998 0.90799999
-0.171 0.90399998 0.90499997
-0.168 0.90399998 0.90899998
-0.164 0.90399998 0.91000003
-0.16 0.90399998 0.91000003
-0.156 0.90399998 0.91100001
-0.152 0.90399998 0.912
-0.147 0.90399998 0.90600002
-0.14300001 0.90399998 0.90399998
-0.139 0.90399998 0.90499997
-0.13500001 0.90399998 0.903
-0.131 0.90399998 0.903
-0.127 0.90399998 0.90499997
-0.123 0.90399998 0.90399998
-0.119 0.90399998 0.90499997
-0.115 0.90399998 0.90499997
-0.111 0.90399998 0.90700001
-0.107 0.90399998 0.90700001
-0.103 0.90399998 0.90899998
-0.098999999 0.90399998 0.90899998
-0.094999999 0.90399998 0.90899998
-0.090999998 0.90399998 0.91000003
-0.086999997 0.90399998 0.903
-0.082999997 0.90399998 0.90399998
-0.078000002 0.90399998 0.89899999
-0.075000003 0.90399998 0.90799999
-0.07 0.90399998 0.89999998
-0.066 0.90399998 0.89999998
-0.061999999 0.90399998 0.89999998
-0.059 0.90399998 0.90899998
-0.055 0.90399998 0.90899998
-0.050999999 0.90399998 0.90899998
-0.046999998 0.90399998 0.91000003
-0.043000001 0.90399998 0.91000003
-0.039000001 0.90399998 0.91000003
-0.035 0.90399998 0.90799999
-0.030999999 0.90399998 0.903
-0.027000001 0.90399998 0.903
-0.023 0.90399998 0.903
-0.018999999 0.90399998 0.89899999
