# .PCD v0.7 - Point Cloud Data file format
VERSION 0.7
FIELDS x y z
SIZE 4 4 4
TYPE F F F
COUNT 1 1 1
WIDTH 1714
HEIGHT 1
VIEWPOINT 0 0 0 1 0 0 0
POINTS 1714
DATA ascii
-0.21859801 4.6799998 -1.13616
-0.192404 4.6799998 -1.14976
-0.16363901 4.6799998 -1.1529499
-0.134482 4.6799998 -1.14966
-0.106754 4.6799998 -1.1480501
-0.078131601 4.6799998 -1.14885
-0.050278097 4.6799998 -1.1444
-0.021301299 4.6799998 -1.14855
0.0056425701 4.6799998 -1.14949
0.0350811 4.6799998 -1.1482099
0.062446401 4.6799998 -1.1438
0.091091007 4.6799998 -1.15742
0.1206 4.6799998 -1.15045
0.147221 4.6799998 -1.13499
0.17414999 4.6799998 -1.12738
0.203601 4.6799998 -1.1224301
0.231977 4.6799998 -1.1291701
0.26063198 4.6799998 -1.12752
0.29195499 4.6799998 -1.13273
0.31973401 4.6799998 -1.1254599
0.34998199 4.6799998 -1.1282099
0.379549 4.6799998 -1.1241601
0.41055098 4.6799998 -1.12226
0.44150698 4.6799998 -1.1244301
0.47233599 4.6799998 -1.12296
0.501499 4.6799998 -1.1157199
0.53620398 4.6799998 -1.11946
0.57370698 4.6799998 -1.12293
0.60984302 4.6799998 -1.1253901
0.64574105 4.6799998 -1.12482
0.68010104 4.6799998 -1.1228399
0.73147601 4.6799998 -1.14268
0.78257298 4.6799998 -1.1015699
0.99509197 4.6799998 -1.09012
1.08145 4.6799998 -1.1284699
1.11956 4.6799998 -1.11347
1.1761401 4.6799998 -1.11368
1.24002 4.6799998 -1.1189699
1.2941099 4.6799998 -1.11201
1.3645301 4.6799998 -1.11673
1.4226899 4.6799998 -1.10841
1.4848199 4.6799998 -1.09683
1.59316 4.6799998 -1.11878
1.67247 4.6799998 -1.11487
-1.66592 4.6799998 -0.96303397
-1.58398 4.6799998 -0.96829104
-1.5323199 4.6799998 -0.99035305
-1.49089 4.6799998 -1.01571
-1.41616 4.6799998 -1.01656
-1.3406 4.6799998 -1.0125101
-1.2740101 4.6799998 -1.01396
-1.2306899 4.6799998 -1.0275301
-1.16809 4.6799998 -1.02721
-1.12049 4.6799998 -1.03521
-1.07022 4.6799998 -1.03633
-1.02151 4.6799998 -1.0389301
-0.97645396 4.6799998 -1.0454
-0.92760402 4.6799998 -1.0455899
-0.87997699 4.6799998 -1.0411999
-0.83990502 4.6799998 -1.04475
-0.79661202 4.6799998 -1.0440501
-0.76163799 4.6799998 -1.04951
-0.72772199 4.6799998 -1.05452
-0.710271 4.6799998 -1.08463
-0.70329201 4.6799998 -1.1344301
-0.67029798 4.6799998 -1.1415
-0.632882 4.6799998 -1.1395501
-0.60077 4.6799998 -1.14947
-0.56592703 4.6799998 -1.14838
-0.52959603 4.6799998 -1.14467
-0.496315 4.6799998 -1.14915
-0.46432701 4.6799998 -1.1465501
-0.42915303 4.6799998 -1.1449699
-0.39718601 4.6799998 -1.1413699
-0.36330599 4.6799998 -1.13817
-0.335529 4.6799998 -1.14302
-0.30602199 4.6799998 -1.1458399
-0.27170402 4.6799998 -1.12902
-0.24647799 4.6799998 -1.14272
-0.21804699 4.6799998 -1.1484799
-0.189814 4.6799998 -1.1496899
-0.160878 4.6799998 -1.1538399
-0.13194501 4.6799998 -1.1496999
-0.102392 4.6799998 -1.1487
-0.074474201 4.6799998 -1.1458299
-0.045858398 4.6799998 -1.14333
-0.0181612 4.6799998 -1.14811
0.0080936207 4.6799998 -1.14147
0.037143201 4.6799998 -1.14415
0.064784899 4.6799998 -1.14642
0.092313401 4.6799998 -1.13726
0.122822 4.6799998 -1.15046
0.15008 4.6799998 -1.14722
0.179125 4.6799998 -1.1430501
0.20369099 4.6799998 -1.12293
0.23244999 4.6799998 -1.12524
0.261078 4.6799998 -1.12665
0.29108199 4.6799998 -1.1293399
0.32021099 4.6799998 -1.12949
0.35136101 4.6799998 -1.1283101
0.378629 4.6799998 -1.12447
0.41050202 4.6799998 -1.12308
0.440014 4.6799998 -1.12152
0.47448498 4.6799998 -1.1272099
0.50119501 4.6799998 -1.11586
0.53775001 4.6799998 -1.11955
0.56870002 4.6799998 -1.1153901
0.60678101 4.6799998 -1.12193
0.639476 4.6799998 -1.11602
0.67931199 4.6799998 -1.12361
0.72320503 4.6799998 -1.1351999
0.75469297 4.6799998 -1.12085
1.07837 4.6799998 -1.13141
1.12147 4.6799998 -1.12147
1.16067 4.6799998 -1.1056501
1.2113 4.6799998 -1.09966
1.28434 4.6799998 -1.11033
1.35365 4.6799998 -1.11463
1.41099 4.6799998 -1.10673
1.48873 4.6799998 -1.11043
1.53299 4.6799998 -1.08655
1.65661 4.6799998 -1.1160799
-1.74441 4.6799998 -0.97316802
-1.67759 4.6799998 -0.99064201
-1.58485 4.6799998 -0.98972201
-1.5156701 4.6799998 -0.99667197
-1.4411 4.6799998 -1.0003099
-1.3775699 4.6799998 -1.00719
-1.3167 4.6799998 -1.01377
-1.2651701 4.6799998 -1.02337
-1.21567 4.6799998 -1.0325601
-1.15378 4.6799998 -1.03091
-1.10263 4.6799998 -1.03385
-1.0471801 4.6799998 -1.0313001
-1.00485 4.6799998 -1.03772
-0.97113299 4.6799998 -1.05749
-0.911533 4.6799998 -1.0434201
-0.857449 4.6799998 -1.0304
-0.824534 4.6799998 -1.0435699
-0.78331298 4.6799998 -1.04126
-0.74706894 4.6799998 -1.0467499
-0.71907896 4.6799998 -1.05983
-0.71103698 4.6799998 -1.10411
-0.692936 4.6799998 -1.13493
-0.65875 4.6799998 -1.14099
-0.63122499 4.6799998 -1.1573
-0.589634 4.6799998 -1.14792
-0.55084699 4.6799998 -1.1404301
-0.51981503 4.6799998 -1.1439301
-0.48798499 4.6799998 -1.14701
-0.452647 4.6799998 -1.1418
-0.42125902 4.6799998 -1.14283
-0.38673699 4.6799998 -1.13624
-0.35767099 4.6799998 -1.1365501
-0.32759699 4.6799998 -1.14012
-0.29289898 4.6799998 -1.1236999
-0.267557 4.6799998 -1.13489
-0.241166 4.6799998 -1.1484499
-0.21303301 4.6799998 -1.14942
-0.182871 4.6799998 -1.14651
-0.156095 4.6799998 -1.15878
-0.127527 4.6799998 -1.1499499
-0.099227093 4.6799998 -1.1449599
-0.0695737 4.6799998 -1.14263
-0.041695204 4.6799998 -1.1404899
-0.0153466 4.6799998 -1.1484001
0.0121722 4.6799998 -1.1444399
0.041530799 4.6799998 -1.13599
0.068414003 4.6799998 -1.13895
0.1011 4.6799998 -1.1447901
0.12982801 4.6799998 -1.1534699
0.15809599 4.6799998 -1.14993
0.18413499 4.6799998 -1.1384599
0.211007 4.6799998 -1.1281899
0.24003001 4.6799998 -1.12774
0.26875299 4.6799998 -1.12484
0.30033299 4.6799998 -1.13571
0.32752702 4.6799998 -1.12713
0.356682 4.6799998 -1.1227
0.386531 4.6799998 -1.1225699
0.41539899 4.6799998 -1.1212801
0.44760501 4.6799998 -1.1228199
0.47967499 4.6799998 -1.1198399
0.50727397 4.6799998 -1.1131099
0.54271603 4.6799998 -1.11659
0.58162403 4.6799998 -1.12477
0.62045896 4.6799998 -1.13241
0.65259302 4.6799998 -1.1260699
0.69771504 4.6799998 -1.13787
0.76170802 4.6799998 -1.1161
0.85023904 4.6799998 -1.1257499
1.02315 4.6799998 -1.11291
1.0809799 4.6799998 -1.11816
1.1248699 4.6799998 -1.11024
1.1855501 4.6799998 -1.11464
1.2188801 4.6799998 -1.09088
1.3050799 4.6799998 -1.11342
1.36111 4.6799998 -1.1059
1.4685301 4.6799998 -1.13578
1.51551 4.6799998 -1.11122
1.58831 4.6799998 -1.1082801
1.73 4.6799998 -1.14574
1.8277099 4.6799998 -1.14972
-1.65618 4.6799998 -0.957403
-1.60393 4.6799998 -0.97928196
-1.5417399 4.6799998 -0.99465603
-1.46698 4.6799998 -0.99707502
-1.4095501 4.6799998 -1.00949
-1.3406301 4.6799998 -1.01081
-1.2692801 4.6799998 -1.00624
-1.22577 4.6799998 -1.0217199
-1.16874 4.6799998 -1.0260899
-1.1172199 4.6799998 -1.0288
-1.07022 4.6799998 -1.03633
-1.02257 4.6799998 -1.0371801
-0.97582799 4.6799998 -1.0453
-0.925304 4.6799998 -1.04128
-0.88704103 4.6799998 -1.04897
-0.837183 4.6799998 -1.0402
-0.79731405 4.6799998 -1.0431999
-0.76249701 4.6799998 -1.04888
-0.72671801 4.6799998 -1.0549101
-0.71024901 4.6799998 -1.08524
-0.700481 4.6799998 -1.13059
-0.66689301 4.6799998 -1.13712
-0.631154 4.6799998 -1.13936
-0.59761399 4.6799998 -1.1404001
-0.56289101 4.6799998 -1.14458
-0.526357 4.6799998 -1.14094
-0.49737 4.6799998 -1.14815
-0.46460801 4.6799998 -1.14724
-0.42841899 4.6799998 -1.1401701
-0.39459798 4.6799998 -1.14094
-0.36314699 4.6799998 -1.13875
-0.33357 4.6799998 -1.1386501
-0.302095 4.6799998 -1.13861
-0.27587399 4.6799998 -1.1490999
-0.24559501 4.6799998 -1.14317
-0.21777999 4.6799998 -1.14879
-0.18797301 4.6799998 -1.1502399
-0.15914799 4.6799998 -1.146
-0.13182899 4.6799998 -1.15425
-0.103287 4.6799998 -1.14811
-0.073328599 4.6799998 -1.14265
-0.045060501 4.6799998 -1.14687
-0.0175464 4.6799998 -1.14887
0.0097092306 4.6799998 -1.1484599
0.037340697 4.6799998 -1.14064
0.066646107 4.6799998 -1.1460601
0.094213597 4.6799998 -1.1413699
0.122724 4.6799998 -1.1348799
0.15220399 4.6799998 -1.1464399
0.177609 4.6799998 -1.12735
0.20561799 4.6799998 -1.12308
0.234954 4.6799998 -1.1280401
0.26253298 4.6799998 -1.1273299
0.29262102 4.6799998 -1.12894
0.32322499 4.6799998 -1.1330501
0.35132399 4.6799998 -1.12387
0.381468 4.6799998 -1.12377
0.40891001 4.6799998 -1.11967
0.44273299 4.6799998 -1.12394
0.47573 4.6799998 -1.12587
0.51042199 4.6799998 -1.1314499
0.53567201 4.6799998 -1.11444
0.57290196 4.6799998 -1.12363
0.60927898 4.6799998 -1.1265401
0.64457202 4.6799998 -1.12492
0.682643 4.6799998 -1.12773
0.72695804 4.6799998 -1.13904
0.75239396 4.6799998 -1.1154699
0.788324 4.6799998 -1.1115899
1.01168 4.6799998 -1.11255
1.07412 4.6799998 -1.1251
1.11405 4.6799998 -1.1098001
1.16688 4.6799998 -1.11036
1.23781 4.6799998 -1.1206601
1.29869 4.6799998 -1.12087
1.35487 4.6799998 -1.11315
1.49015 4.6799998 -1.1089499
1.5440501 4.6799998 -1.08996
1.64836 4.6799998 -1.10596
-1.72193 4.71 -1.0124
-1.6965699 4.71 -1.05435
-1.56963 4.71 -1.03154
-1.4995799 4.71 -1.0396899
-1.42387 4.71 -1.04045
-1.36122 4.71 -1.04568
-1.29237 4.71 -1.04421
-1.2524301 4.71 -1.06496
-1.18303 4.71 -1.05821
-1.12904 4.71 -1.05977
-1.07565 4.71 -1.06224
-1.02948 4.71 -1.0678
-0.98341101 4.71 -1.07438
-0.94180501 4.71 -1.08402
-0.88295698 4.71 -1.06933
-0.83923799 4.71 -1.06636
-0.79534 4.71 -1.0663
-0.75592798 4.71 -1.06652
-0.71987402 4.71 -1.07166
-0.689973 4.71 -1.08435
-0.67839205 4.71 -1.1241701
-0.65884197 4.71 -1.1542
-0.62233597 4.71 -1.1567099
-0.58802098 4.71 -1.16109
-0.55815804 4.71 -1.1702
-0.51639396 4.71 -1.1564399
-0.482548 4.71 -1.1596
-0.45268399 4.71 -1.16596
-0.41653699 4.71 -1.1552
-0.38474399 4.71 -1.15511
-0.35223499 4.71 -1.15211
-0.32103202 4.71 -1.15029
-0.28851402 4.71 -1.14651
-0.26007 4.71 -1.1522701
-0.23014501 4.71 -1.15046
-0.204354 4.71 -1.16826
-0.171496 4.71 -1.1518
-0.144888 4.71 -1.16427
-0.115192 4.71 -1.1630601
-0.085797802 4.71 -1.1503
-0.057943501 4.71 -1.1475401
-0.029569799 4.71 -1.14112
-0.0018689999 4.71 -1.1422499
0.027145399 4.71 -1.1439301
0.054887 4.71 -1.14268
0.083203204 4.71 -1.14498
0.112457 4.71 -1.13544
0.141863 4.71 -1.1399599
0.17132801 4.71 -1.14424
0.19838201 4.71 -1.1396099
0.226173 4.71 -1.1306
0.25173 4.71 -1.11673
0.28088799 4.71 -1.1174899
0.31067899 4.71 -1.11555
0.34271899 4.71 -1.12208
0.369636 4.71 -1.11482
0.40063101 4.71 -1.11203
0.43009299 4.71 -1.1068799
0.46063501 4.71 -1.1078
0.49530399 4.71 -1.1124699
0.52239096 4.71 -1.10139
0.55331898 4.71 -1.09628
0.58993 4.71 -1.09863
0.627433 4.71 -1.1047601
0.66173798 4.71 -1.1026801
0.69743401 4.71 -1.1000401
0.75010103 4.71 -1.1239301
0.77429402 4.71 -1.1006899
0.80851203 4.71 -1.08953
1.08305 4.71 -1.0842299
1.1308199 4.71 -1.07899
1.1808001 4.71 -1.07374
1.23685 4.71 -1.0704499
1.32383 4.71 -1.09067
1.3719399 4.71 -1.0755
1.51452 4.71 -1.07283
1.5594001 4.71 -1.04874
1.64293 4.71 -1.0466601
-1.83302 4.71 -1.02983
-1.7169399 4.71 -1.02084
-1.61989 4.71 -1.01714
-1.5479699 4.71 -1.0257901
-1.4871999 4.71 -1.0395401
-1.4107801 4.71 -1.0409499
-1.3485401 4.71 -1.0453299
-1.28684 4.71 -1.05022
-1.2298499 4.71 -1.0533
-1.1794499 4.71 -1.06257
-1.11964 4.71 -1.05845
-1.07188 4.71 -1.0660501
-1.01652 4.71 -1.06188
-0.96884698 4.71 -1.06837
-0.92962801 4.71 -1.0776999
-0.87633502 4.71 -1.06604
-0.82796597 4.71 -1.06154
-0.78783602 4.71 -1.06409
-0.74970204 4.71 -1.0645
-0.71082705 4.71 -1.0650799
-0.68814099 4.71 -1.0866899
-0.67789602 4.71 -1.1303
-0.65082502 4.71 -1.14668
-0.61741197 4.71 -1.15283
-0.58507705 4.71 -1.1631401
-0.54790699 4.71 -1.15763
-0.51336199 4.71 -1.15642
-0.48128298 4.71 -1.16013
-0.44717002 4.71 -1.15924
-0.41226903 4.71 -1.15221
-0.38151503 4.71 -1.15486
-0.34737799 4.71 -1.14966
-0.31576401 4.71 -1.1434499
-0.28620401 4.71 -1.14657
-0.25892299 4.71 -1.1530401
-0.2269 4.71 -1.14396
-0.19657201 4.71 -1.14398
-0.169333 4.71 -1.15238
-0.14119999 4.71 -1.16044
-0.113337 4.71 -1.16374
-0.082920402 4.71 -1.14976
-0.056538202 4.71 -1.15086
-0.026198098 4.71 -1.1434499
0.0018788199 4.71 -1.14825
0.028001498 4.71 -1.14066
0.0568811 4.71 -1.1388299
0.084868103 4.71 -1.1378399
0.113101 4.71 -1.13563
0.140937 4.71 -1.1325101
0.17436701 4.71 -1.16022
0.19620799 4.71 -1.1235
0.223868 4.71 -1.1190799
0.25060201 4.71 -1.11314
0.28119299 4.71 -1.1186999
0.31100801 4.71 -1.11909
0.34126198 4.71 -1.1227801
0.369901 4.71 -1.11868
0.39842302 4.71 -1.11256
0.42840302 4.71 -1.107
0.45889401 4.71 -1.10446
0.49388799 4.71 -1.1133699
0.521577 4.71 -1.10123
0.55508399 4.71 -1.10127
0.589782 4.71 -1.1026801
0.62581497 4.71 -1.10683
0.661048 4.71 -1.10426
0.70124102 4.71 -1.1100601
0.74826097 4.71 -1.12516
0.77625203 4.71 -1.10603
0.805686 4.71 -1.09193
0.99774301 4.71 -1.1062801
1.02341 4.71 -1.08258
1.0711601 4.71 -1.07702
1.12853 4.71 -1.0821
1.17743 4.71 -1.0759599
1.23347 4.71 -1.07283
1.29313 4.71 -1.07131
1.36184 4.71 -1.0741899
1.4271801 4.71 -1.06876
1.53898 4.71 -1.09711
1.57525 4.71 -1.06502
1.6712199 4.71 -1.0711
-1.72083 4.71 -1.0142801
-1.68481 4.71 -1.04959
-1.5703299 4.71 -1.0313901
-1.48253 4.71 -1.0278699
-1.42387 4.71 -1.04045
-1.3824301 4.71 -1.06198
-1.3056899 4.71 -1.0555601
-1.2395799 4.71 -1.05345
-1.1838101 4.71 -1.05659
-1.1301899 4.71 -1.05854
-1.0775 4.71 -1.06001
-1.03076 4.71 -1.0662199
-0.97939003 4.71 -1.06823
-0.94139802 4.71 -1.0764201
-0.88571 4.71 -1.06672
-0.79764503 4.71 -1.0633299
-0.76245999 4.71 -1.07016
-0.72129601 4.71 -1.06497
-0.68983299 4.71 -1.07375
-0.68211299 4.71 -1.1213299
-0.671161 4.71 -1.16615
-0.624318 4.71 -1.1490999
-0.59200203 4.71 -1.15485
-0.56162095 4.71 -1.16355
-0.52503699 4.71 -1.16215
-0.48957101 4.71 -1.15774
-0.45765999 4.71 -1.1599799
-0.42501199 4.71 -1.1569
-0.39206201 4.71 -1.15291
-0.35952899 4.71 -1.15011
-0.327889 4.71 -1.1494
-0.29851601 4.71 -1.14782
-0.26866102 4.71 -1.15081
-0.23921001 4.71 -1.1531999
-0.209674 4.71 -1.15055
-0.18251801 4.71 -1.15441
-0.154376 4.71 -1.1628001
-0.125045 4.71 -1.15047
-0.097737804 4.71 -1.15337
-0.068431504 4.71 -1.14972
-0.039942499 4.71 -1.1438
-0.011862701 4.71 -1.1446899
0.0160286 4.71 -1.15239
0.0429084 4.71 -1.1479499
0.071380205 4.71 -1.14653
0.101012 4.71 -1.1438
0.12806599 4.71 -1.13782
0.155064 4.71 -1.1301601
0.18736799 4.71 -1.15845
0.20936799 4.71 -1.12112
0.23764999 4.71 -1.11955
0.26679 4.71 -1.1206801
0.29603601 4.71 -1.11823
0.32468399 4.71 -1.11962
0.354476 4.71 -1.11999
0.38382599 4.71 -1.1176801
0.41414002 4.71 -1.1169399
0.44391 4.71 -1.1100301
0.474163 4.71 -1.10697
0.507577 4.71 -1.11297
0.54113704 4.71 -1.1118001
0.57111502 4.71 -1.1074001
0.607732 4.71 -1.10489
0.64706999 4.71 -1.11164
0.67918801 4.71 -1.10495
0.72665197 4.71 -1.11961
0.76262099 4.71 -1.1154799
0.79036403 4.71 -1.0959899
1.05247 4.71 -1.08452
1.10376 4.71 -1.0846601
1.15268 4.71 -1.07842
1.2030699 4.71 -1.0714201
1.2664599 4.71 -1.0750999
1.32776 4.71 -1.0728
1.3901801 4.71 -1.0691301
1.61615 4.71 -1.06591
1.7699399 4.71 -1.10867
-1.89618 4.71 -1.03289
-1.58873 4.71 -1.0237399
-1.50061 4.71 -1.02053
-1.4420699 4.71 -1.0327801
-1.3915601 4.71 -1.0504
-1.31542 4.71 -1.0434101
-1.2513101 4.71 -1.04301
-1.20588 4.71 -1.0557801
-1.14425 4.71 -1.05369
-1.09163 4.71 -1.05591
-1.0449301 4.71 -1.06217
-0.99425298 4.71 -1.06504
-0.94506502 4.71 -1.06586
-0.89859998 4.71 -1.0644101
-0.86031097 4.71 -1.07133
-0.80921304 4.71 -1.0611601
-0.77161902 4.71 -1.06265
-0.73623496 4.71 -1.06748
-0.69760197 4.71 -1.06783
-0.67904305 4.71 -1.09799
-0.67523998 4.71 -1.15135
-0.63617104 4.71 -1.14916
-0.60280299 4.71 -1.1549001
-0.56700498 4.71 -1.15453
-0.532956 4.71 -1.15441
-0.50104702 4.71 -1.1566401
-0.467356 4.71 -1.1558399
-0.43401 4.71 -1.1540899
-0.39827499 4.71 -1.15157
-0.36732501 4.71 -1.15185
-0.335619 4.71 -1.15029
-0.30439499 4.71 -1.14601
-0.277181 4.71 -1.15316
-0.246645 4.71 -1.15572
-0.21645699 4.71 -1.1452199
-0.18855999 4.71 -1.1498901
-0.16075 4.71 -1.16219
-0.129722 4.71 -1.1496999
-0.102141 4.71 -1.15298
-0.0726467 4.71 -1.1466999
-0.045099702 4.71 -1.1478599
-0.0174319 4.71 -1.1413699
0.010015899 4.71 -1.14771
0.039447401 4.71 -1.1475699
0.066564903 4.71 -1.13931
0.094773501 4.71 -1.1368101
0.123083 4.71 -1.14993
0.151612 4.71 -1.14677
0.179398 4.71 -1.14275
0.207388 4.71 -1.13801
0.23515801 4.71 -1.12902
0.26184601 4.71 -1.11748
0.288876 4.71 -1.117
0.31955898 4.71 -1.1213599
0.34839499 4.71 -1.11771
0.37812701 4.71 -1.1159301
0.40745902 4.71 -1.1138101
0.43659499 4.71 -1.1083599
0.46771899 4.71 -1.10944
0.50230896 4.71 -1.11508
0.52963203 4.71 -1.10265
0.56062704 4.71 -1.09733
0.59566402 4.71 -1.1006501
0.63650799 4.71 -1.11225
0.664913 4.71 -1.1004699
0.70550799 4.71 -1.10676
0.75346994 4.71 -1.12168
0.77849001 4.71 -1.09772
1.0275401 4.71 -1.07867
1.1000301 4.71 -1.0994301
1.1372 4.71 -1.08389
1.19201 4.71 -1.0833399
1.2498101 4.71 -1.0810699
1.32323 4.71 -1.09139
1.37962 4.71 -1.0815101
1.42933 4.71 -1.06672
1.50499 4.71 -1.06855
1.5673001 4.71 -1.05715
-1.72083 4.71 -1.0142801
-1.62327 4.71 -1.01126
-1.5619 4.71 -1.0264599
-1.49088 4.71 -1.03426
-1.4164799 4.71 -1.0344599
-1.36094 4.71 -1.0460501
-1.2858499 4.71 -1.03836
-1.23348 4.71 -1.04827
-1.1798 4.71 -1.0524399
-1.12266 4.71 -1.0537901
-1.0770999 4.71 -1.06078
-1.02566 4.71 -1.0621099
-0.97480297 4.71 -1.06498
-0.93858898 4.71 -1.0785301
-0.88422698 4.71 -1.0673001
-0.83301204 4.71 -1.05726
-0.79662502 4.71 -1.0637801
-0.75969201 4.71 -1.0706
-0.71616602 4.71 -1.06301
-0.69018203 4.71 -1.0794699
-0.68023103 4.71 -1.1230601
-0.66346401 4.71 -1.15789
-0.62224203 4.71 -1.15051
-0.55706096 4.71 -1.1646301
-0.51923102 4.71 -1.1551701
-0.48735997 4.71 -1.1586801
-0.45485401 4.71 -1.16028
-0.418257 4.71 -1.1540401
-0.38702801 4.71 -1.15461
-0.354193 4.71 -1.15177
-0.32196701 4.71 -1.1464
-0.29269299 4.71 -1.14854
-0.26627803 4.71 -1.1605999
-0.23169099 4.71 -1.1419799
-0.205623 4.71 -1.15509
-0.17724 4.71 -1.15574
-0.146607 4.71 -1.14742
-0.12090001 4.71 -1.16248
-0.091149502 4.71 -1.15014
-0.062011398 4.71 -1.1473299
-0.034852099 4.71 -1.14072
-0.0056155701 4.71 -1.14399
0.021296699 4.71 -1.1483001
0.0495997 4.71 -1.14317
0.077928104 4.71 -1.1458499
0.106984 4.71 -1.14376
0.13639799 4.71 -1.1444
0.165048 4.71 -1.14491
0.19153999 4.71 -1.1369799
0.21736 4.71 -1.1198499
0.24613801 4.71 -1.11746
0.275094 4.71 -1.1189301
0.303132 4.71 -1.11788
0.33420402 4.71 -1.12151
0.36225399 4.71 -1.11698
0.39157301 4.71 -1.1115501
0.420026 4.71 -1.1104699
0.448865 4.71 -1.1031801
0.48448902 4.71 -1.11259
0.51324296 4.71 -1.1045799
0.54353303 4.71 -1.09614
0.57997102 4.71 -1.1030699
0.61218905 4.71 -1.103
0.64872903 4.71 -1.1054599
0.69213599 4.71 -1.11576
0.736808 4.71 -1.1258299
0.76361102 4.71 -1.1078199
0.79717797 4.71 -1.09785
1.05542 4.71 -1.08165
1.10665 4.71 -1.08277
1.16088 4.71 -1.08136
1.21775 4.71 -1.07974
1.31004 4.71 -1.1071899
1.32961 4.71 -1.0713
1.40828 4.71 -1.07757
1.52683 4.71 -1.05612
1.59875 4.71 -1.05006
1.9656501 4.71 -1.09589
-1.7849699 4.7399998 -1.03185
-1.70429 4.7399998 -1.0418299
-1.57816 4.7399998 -1.01937
-1.51595 4.7399998 -1.03399
-1.43981 4.7399998 -1.03592
-1.3754599 4.7399998 -1.04061
-1.3142099 4.7399998 -1.04654
-1.2599499 4.7399998 -1.05489
-1.2031801 4.7399998 -1.05923
-1.1469799 4.7399998 -1.0614201
-1.08929 4.7399998 -1.0594001
-1.0363901 4.7399998 -1.0604
-0.99158597 4.7399998 -1.0668399
-0.94240701 4.7399998 -1.06754
-0.89196503 4.7399998 -1.0618299
-0.85395396 4.7399998 -1.06937
-0.81413096 4.7399998 -1.0712399
-0.76755601 4.7399998 -1.06559
-0.72650802 4.7399998 -1.0620301
-0.69807398 4.7399998 -1.0794499
-0.67828399 4.7399998 -1.1055
-0.67077601 4.7399998 -1.1545401
-0.63469398 4.7399998 -1.1554
-0.59847498 4.7399998 -1.15658
-0.56612301 4.7399998 -1.16637
-0.53153998 4.7399998 -1.1655201
-0.49502498 4.7399998 -1.16004
-0.461573 4.7399998 -1.16247
-0.42471799 4.7399998 -1.15221
-0.39127898 4.7399998 -1.1537
-0.35986897 4.7399998 -1.1534101
-0.32973099 4.7399998 -1.1499101
-0.29757401 4.7399998 -1.14548
-0.26800799 4.7399998 -1.14659
-0.23952499 4.7399998 -1.1531401
-0.20989799 4.7399998 -1.15
-0.18102099 4.7399998 -1.1551501
-0.151953 4.7399998 -1.1590799
-0.123858 4.7399998 -1.1661899
-0.093676396 4.7399998 -1.15797
-0.065737098 4.7399998 -1.14662
-0.037264802 4.7399998 -1.1479
-0.0087352898 4.7399998 -1.14397
0.020224301 4.7399998 -1.1408199
0.0479169 4.7399998 -1.14775
0.076315694 4.7399998 -1.1452099
0.10650299 4.7399998 -1.1556
0.132874 4.7399998 -1.13324
0.163112 4.7399998 -1.14923
0.190255 4.7399998 -1.14074
0.215527 4.7399998 -1.1201999
0.244918 4.7399998 -1.11773
0.27274498 4.7399998 -1.11462
0.301891 4.7399998 -1.11692
0.332504 4.7399998 -1.11915
0.36218101 4.7399998 -1.11779
0.38920301 4.7399998 -1.11158
0.42117599 4.7399998 -1.11351
0.450977 4.7399998 -1.10664
0.48368701 4.7399998 -1.11157
0.51615196 4.7399998 -1.10847
0.54230297 4.7399998 -1.0959101
0.58050501 4.7399998 -1.1033599
0.61527801 4.7399998 -1.1064301
0.653202 4.7399998 -1.1089201
0.68750703 4.7399998 -1.1062701
0.73247302 4.7399998 -1.11522
0.76808697 4.7399998 -1.11172
0.798522 4.7399998 -1.09718
1.06344 4.7399998 -1.0839399
1.11605 4.7399998 -1.08424
1.1705799 4.7399998 -1.0826701
1.22787 4.7399998 -1.0803699
1.26647 4.7399998 -1.06152
1.3624101 4.7399998 -1.08675
1.42045 4.7399998 -1.0776899
1.5058 4.7399998 -1.0858901
1.5594699 4.7399998 -1.06867
1.6236401 4.7399998 -1.05629
1.74429 4.7399998 -1.07415
-1.90457 4.7399998 -1.0173401
-1.71331 4.7399998 -1.0269201
-1.5970501 4.7399998 -1.01071
-1.5626899 4.7399998 -1.04293
-1.4912701 4.7399998 -1.05027
-1.40799 4.7399998 -1.0430501
-1.32985 4.7399998 -1.0384101
-1.2716 4.7399998 -1.0435799
-1.21532 4.7399998 -1.04719
-1.16401 4.7399998 -1.0561601
-1.11186 4.7399998 -1.05685
-1.05889 4.7399998 -1.05889
-1.00885 4.7399998 -1.06021
-0.961541 4.7399998 -1.0679001
-0.909087 4.7399998 -1.0620601
-0.86428005 4.7399998 -1.06137
-0.82650799 4.7399998 -1.06805
-0.78302199 4.7399998 -1.06547
-0.74490196 4.7399998 -1.0681601
-0.707461 4.7399998 -1.06822
-0.68382299 4.7399998 -1.08971
-0.67359602 4.7399998 -1.1343199
-0.64901596 4.7399998 -1.15373
-0.61371005 4.7399998 -1.1565
-0.57955605 4.7399998 -1.16003
-0.54348499 4.7399998 -1.16055
-0.50902998 4.7399998 -1.15943
-0.474289 4.7399998 -1.1584201
-0.44127399 4.7399998 -1.15615
-0.40808702 4.7399998 -1.15741
-0.37383801 4.7399998 -1.14949
-0.34429502 4.7399998 -1.1485
-0.31328699 4.7399998 -1.1454301
-0.28328699 4.7399998 -1.1509
-0.25066799 4.7399998 -1.13362
-0.22045599 4.7399998 -1.1358
-0.196839 4.7399998 -1.15687
-0.167743 4.7399998 -1.1569
-0.13897599 4.7399998 -1.15265
-0.110986 4.7399998 -1.15593
-0.080792896 4.7399998 -1.14641
-0.052912898 4.7399998 -1.14728
-0.023781098 4.7399998 -1.1472501
0.00221629 4.7399998 -1.161
0.0303839 4.7399998 -1.14835
0.0588951 4.7399998 -1.14774
0.087943606 4.7399998 -1.14538
0.116987 4.7399998 -1.14303
0.145762 4.7399998 -1.14829
0.174135 4.7399998 -1.1438199
0.20254099 4.7399998 -1.1431999
0.228177 4.7399998 -1.12152
0.256275 4.7399998 -1.1198001
0.28601 4.7399998 -1.1172199
0.31493703 4.7399998 -1.1213599
0.34436801 4.7399998 -1.11765
0.37342599 4.7399998 -1.1130301
0.403458 4.7399998 -1.11606
0.43296501 4.7399998 -1.1097801
0.460906 4.7399998 -1.1033499
0.499569 4.7399998 -1.11549
0.53161103 4.7399998 -1.11611
0.55978197 4.7399998 -1.1030899
0.59374404 4.7399998 -1.10141
0.635171 4.7399998 -1.11273
0.66474199 4.7399998 -1.10087
0.706213 4.7399998 -1.1071999
0.75285798 4.7399998 -1.12209
0.78364599 4.7399998 -1.10755
0.80700898 4.7399998 -1.0838001
1.03838 4.7399998 -1.0876701
1.0946 4.7399998 -1.0946
1.14388 4.7399998 -1.08847
1.19338 4.7399998 -1.0822099
1.2512901 4.7399998 -1.07937
1.31189 4.7399998 -1.07724
1.38138 4.7399998 -1.08047
1.52508 4.7399998 -1.0778199
1.57025 4.7399998 -1.0523101
1.68563 4.7399998 -1.07128
-1.7732099 4.7399998 -1.0257
-1.6939 4.7399998 -1.03485
-1.5874001 4.7399998 -1.02534
-1.524 4.7399998 -1.03948
-1.43287 4.7399998 -1.02974
-1.3754599 4.7399998 -1.04061
-1.31265 4.7399998 -1.0453
-1.24826 4.7399998 -1.0451
-1.1970899 4.7399998 -1.05329
-1.1424201 4.7399998 -1.05604
-1.0797499 4.7399998 -1.0484101
-1.03934 4.7399998 -1.05821
-0.98365301 4.7399998 -1.05715
-0.93930602 4.7399998 -1.0622801
-0.89312297 4.7399998 -1.06085
-0.847489 4.7399998 -1.0595
-0.80923998 4.7399998 -1.0624
-0.76827902 4.7399998 -1.06414
-0.73065698 4.7399998 -1.06373
-0.699283 4.7399998 -1.0735899
-0.68129599 4.7399998 -1.10365
-0.66718298 4.7399998 -1.14332
-0.63634199 4.7399998 -1.1539201
-0.59900302 4.7399998 -1.1506701
-0.56417 4.7399998 -1.15592
-0.53293902 4.7399998 -1.1610301
-0.49952701 4.7399998 -1.16356
-0.46275401 4.7399998 -1.15715
-0.430861 4.7399998 -1.15527
-0.39771602 4.7399998 -1.15097
-0.366079 4.7399998 -1.1511999
-0.33376998 4.7399998 -1.14744
-0.30358499 4.7399998 -1.14675
-0.27286899 4.7399998 -1.14622
-0.242993 4.7399998 -1.1478101
-0.21496001 4.7399998 -1.1493199
-0.18667799 4.7399998 -1.1502
-0.159604 4.7399998 -1.15856
-0.13043401 4.7399998 -1.1617
-0.100579 4.7399998 -1.15689
-0.072491303 4.7399998 -1.14922
-0.044425301 4.7399998 -1.1466401
-0.015972901 4.7399998 -1.1483901
0.0115581 4.7399998 -1.14544
0.039270803 4.7399998 -1.15158
0.067627802 4.7399998 -1.14676
0.098953106 4.7399998 -1.15276
0.12545401 4.7399998 -1.1340799
0.15530701 4.7399998 -1.1505699
0.18150501 4.7399998 -1.13002
0.20915401 4.7399998 -1.12167
0.23575701 4.7399998 -1.11663
0.26526201 4.7399998 -1.12104
0.29391301 4.7399998 -1.12008
0.32528299 4.7399998 -1.1228299
0.35302898 4.7399998 -1.11966
0.381311 4.7399998 -1.11431
0.413095 4.7399998 -1.11227
0.441728 4.7399998 -1.1063199
0.47415599 4.7399998 -1.10779
0.50621098 4.7399998 -1.1083699
0.53525704 4.7399998 -1.10048
0.569911 4.7399998 -1.10212
0.60676706 4.7399998 -1.1059899
0.64153302 4.7399998 -1.1090699
0.68234098 4.7399998 -1.1141601
0.72030902 4.7399998 -1.1171701
0.78677303 4.7399998 -1.09857
0.81739897 4.7399998 -1.08288
1.0490401 4.7399998 -1.08749
1.1067801 4.7399998 -1.09298
1.15465 4.7399998 -1.08619
1.20599 4.7399998 -1.08053
1.24441 4.7399998 -1.0616601
1.3452901 4.7399998 -1.09365
1.38735 4.7399998 -1.07239
1.4873 4.7399998 -1.09303
1.5410401 4.7399998 -1.0746701
1.60444 4.7399998 -1.06322
1.70233 4.7399998 -1.06826
-1.8992701 4.7399998 -1.0272
-1.66601 4.7399998 -1.01096
-1.5911701 4.7399998 -1.0204099
-1.51968 4.7399998 -1.0280501
-1.45303 4.7399998 -1.0346401
-1.39402 4.7399998 -1.0463001
-1.3181801 4.7399998 -1.0403299
-1.25897 4.7399998 -1.04475
-1.20233 4.7399998 -1.04805
-1.14749 4.7399998 -1.05091
-1.0991601 4.7399998 -1.05855
-1.0485799 4.7399998 -1.05893
-0.99282205 4.7399998 -1.05713
-0.94558501 4.7399998 -1.0576999
-0.89918298 4.7399998 -1.05572
-0.854433 4.7399998 -1.0545501
-0.81547999 4.7399998 -1.05856
-0.77803898 4.7399998 -1.06354
-0.73914897 4.7399998 -1.06486
-0.70547199 4.7399998 -1.07283
-0.68339598 4.7399998 -1.09499
-0.67651802 4.7399998 -1.14422
-0.64173603 4.7399998 -1.14663
-0.60685796 4.7399998 -1.1519201
-0.58604699 4.7399998 -1.1802601
-0.53873605 4.7399998 -1.15697
-0.50438398 4.7399998 -1.15655
-0.47346798 4.7399998 -1.1582099
-0.437832 4.7399998 -1.15184
-0.40352702 4.7399998 -1.14948
-0.37219298 4.7399998 -1.14976
-0.34023699 4.7399998 -1.14632
-0.309719 4.7399998 -1.14588
-0.279311 4.7399998 -1.14415
-0.25114799 4.7399998 -1.15066
-0.22400001 4.7399998 -1.15574
-0.19255701 4.7399998 -1.14112
-0.166261 4.7399998 -1.15333
-0.13771899 4.7399998 -1.1528001
-0.109094 4.7399998 -1.1561099
-0.080462798 4.7399998 -1.14618
-0.052093603 4.7399998 -1.1430601
-0.024273898 4.7399998 -1.14099
0.0053082397 4.7399998 -1.14499
0.032283902 4.7399998 -1.14905
0.060419802 4.7399998 -1.1589301
0.087006502 4.7399998 -1.14545
0.118378 4.7399998 -1.1504301
0.1461 4.7399998 -1.1434499
0.17441 4.7399998 -1.14353
0.20312101 4.7399998 -1.1428399
0.227429 4.7399998 -1.1178499
0.25683302 4.7399998 -1.1222399
0.28400502 4.7399998 -1.12212
0.314363 4.7399998 -1.11815
0.34284398 4.7399998 -1.11812
0.37279201 4.7399998 -1.1171899
0.402814 4.7399998 -1.11523
0.43032998 4.7399998 -1.1110799
0.463287 4.7399998 -1.11076
0.49641699 4.7399998 -1.11252
0.52876598 4.7399998 -1.1124799
0.55745 4.7399998 -1.1037099
0.59382004 4.7399998 -1.10733
0.63350302 4.7399998 -1.11971
0.66631299 4.7399998 -1.1130501
0.70137501 4.7399998 -1.11027
0.748568 4.7399998 -1.1249499
0.77595001 4.7399998 -1.10624
1.0184799 4.7399998 -1.07795
1.1006801 4.7399998 -1.10972
1.1330501 4.7399998 -1.08822
1.18226 4.7399998 -1.08216
1.25187 4.7399998 -1.09243
1.30551 4.7399998 -1.0845799
1.3745899 4.7399998 -1.0879
1.51829 4.7399998 -1.08736
1.5543101 4.7399998 -1.05582
1.6893001 4.7399998 -1.0891999
-1.85947 4.7399998 -1.0109199
-1.7306999 4.7399998 -0.997334
-1.64288 4.7399998 -1.00184
-1.5995899 4.7399998 -1.02766
-1.5008199 4.7399998 -1.01888
-1.4275301 4.7399998 -1.02001
-1.38492 4.7399998 -1.04302
-1.3081501 4.7399998 -1.0364799
-1.23937 4.7399998 -1.0307801
-1.20109 4.7399998 -1.04986
-1.13501 4.7399998 -1.0423199
-1.08785 4.7399998 -1.0493801
-1.0427901 4.7399998 -1.05481
-0.99807703 4.7399998 -1.0679699
-0.95461798 4.7399998 -1.07309
-0.89565504 4.7399998 -1.05741
-0.85123998 4.7399998 -1.0564899
-0.81109995 4.7399998 -1.06004
-0.76647198 4.7399998 -1.05496
-0.73113501 4.7399998 -1.0588499
-0.702793 4.7399998 -1.0713
-0.69191301 4.7399998 -1.11472
-0.67179602 4.7399998 -1.1411999
-0.63843298 4.7399998 -1.1473299
-0.60462403 4.7399998 -1.1522501
-0.56981897 4.7399998 -1.15231
-0.53536904 4.7399998 -1.15715
-0.50040001 4.7399998 -1.1525601
-0.46993202 4.7399998 -1.1585699
-0.43305302 4.7399998 -1.14964
-0.403 4.7399998 -1.15099
-0.36612701 4.7399998 -1.1459301
-0.336036 4.7399998 -1.14939
-0.303808 4.7399998 -1.14255
-0.275444 4.7399998 -1.14869
-0.246488 4.7399998 -1.1473199
-0.215188 4.7399998 -1.1368101
-0.19002901 4.7399998 -1.1529399
-0.16076499 4.7399998 -1.15764
-0.13082801 4.7399998 -1.15386
-0.10369001 4.7399998 -1.1525999
-0.074571505 4.7399998 -1.1473299
-0.0452151 4.7399998 -1.1428599
-0.017473901 4.7399998 -1.14412
0.0097050108 4.7399998 -1.1479599
0.038187303 4.7399998 -1.14736
0.066428401 4.7399998 -1.1423199
0.092927903 4.7399998 -1.14097
0.122276 4.7399998 -1.1542901
0.148829 4.7399998 -1.14739
0.17850101 4.7399998 -1.15554
0.204771 4.7399998 -1.13416
0.231328 4.7399998 -1.12445
0.25925601 4.7399998 -1.12296
0.28755099 4.7399998 -1.1207
0.31680599 4.7399998 -1.12214
0.34790799 4.7399998 -1.1215301
0.37500298 4.7399998 -1.11672
0.405417 4.7399998 -1.11482
0.435846 4.7399998 -1.1126801
0.466221 4.7399998 -1.11522
0.49793398 4.7399998 -1.11184
0.525805 4.7399998 -1.1039201
0.56313598 4.7399998 -1.1112
0.59409899 4.7399998 -1.10207
0.63226599 4.7399998 -1.10834
0.66878498 4.7399998 -1.11098
0.707385 4.7399998 -1.11238
0.75390899 4.7399998 -1.1283001
0.78468299 4.7399998 -1.1141601
0.80523497 4.7399998 -1.0851099
1.04028 4.7399998 -1.09622
1.10279 4.7399998 -1.10762
1.1410401 4.7399998 -1.0929
1.18964 4.7399998 -1.0859399
1.25939 4.7399998 -1.0959799
1.3276701 4.7399998 -1.10054
1.37774 4.7399998 -1.0843
1.52136 4.7399998 -1.08392
1.5936 4.7399998 -1.07806
-1.7320601 4.77 -0.99497402
-1.66509 4.77 -1.0110201
-1.5446 4.77 -0.99113899
-1.5022099 4.77 -1.01684
-1.42761 4.77 -1.01948
-1.3571999 4.77 -1.0204
-1.30987 4.77 -1.0355201
-1.24447 4.77 -1.0355899
-1.2058901 4.77 -1.05463
-1.1455899 4.77 -1.05261
-1.08235 4.77 -1.0446401
-1.03622 4.77 -1.05216
-0.98469895 4.77 -1.05481
-0.93184197 4.77 -1.05152
-0.89111197 4.77 -1.05437
-0.84549201 4.77 -1.0540501
-0.80574101 4.77 -1.05721
-0.76679301 4.77 -1.0584301
-0.726138 4.77 -1.05592
-0.69670898 4.77 -1.06901
-0.686508 4.77 -1.11277
-0.67020202 4.77 -1.14706
-0.63257098 4.77 -1.14487
-0.59865701 4.77 -1.15001
-0.56436104 4.77 -1.1547099
-0.52876705 4.77 -1.15194
-0.49587798 4.77 -1.1550601
-0.46180499 4.77 -1.1529499
-0.42848599 4.77 -1.1508199
-0.39295599 4.77 -1.1473199
-0.361159 4.77 -1.1443599
-0.33123198 4.77 -1.1445301
-0.30101901 4.77 -1.1471601
-0.27105701 4.77 -1.14973
-0.24142799 4.77 -1.1481401
-0.212662 4.77 -1.1456801
-0.183148 4.77 -1.15026
-0.156693 4.77 -1.15845
-0.126709 4.77 -1.15406
-0.097336702 4.77 -1.14863
-0.069161303 4.77 -1.14617
-0.039430302 4.77 -1.1470699
-0.0122201 4.77 -1.14894
0.015724499 4.77 -1.1531401
0.044786703 4.77 -1.14788
0.072286695 4.77 -1.14597
0.100065 4.77 -1.1366
0.130143 4.77 -1.1534301
0.155366 4.77 -1.13466
0.18621001 4.77 -1.14141
0.21323599 4.77 -1.13667
0.239682 4.77 -1.11861
0.269104 4.77 -1.1209
0.29622799 4.77 -1.11895
0.32762501 4.77 -1.12632
0.35706401 4.77 -1.1228399
0.38742802 4.77 -1.1212
0.41631401 4.77 -1.11534
0.44682002 4.77 -1.1129
0.48041198 4.77 -1.11735
0.51040202 4.77 -1.11113
0.54493105 4.77 -1.11496
0.57673901 4.77 -1.1101199
0.616606 4.77 -1.1174101
0.64803004 4.77 -1.1105
0.68620503 4.77 -1.11296
0.76322901 4.77 -1.1150601
0.79448104 4.77 -1.0998
1.11588 4.77 -1.0947801
1.1703199 4.77 -1.09433
1.2224399 4.77 -1.08688
1.29461 4.77 -1.09718
1.35764 4.77 -1.0938901
1.49207 4.77 -1.08779
1.55417 4.77 -1.0750301
1.64852 4.77 -1.08403
1.7618001 4.77 -1.09622
-1.74649 4.77 -0.99441499
-1.64832 4.77 -0.99286103
-1.55717 4.77 -0.99142998
-1.50539 4.77 -1.01122
-1.43128 4.77 -1.01387
-1.38337 4.77 -1.03008
-1.3076899 4.77 -1.0245501
-1.2431099 4.77 -1.02588
-1.20604 4.77 -1.0449301
-1.1392701 4.77 -1.03655
-1.08662 4.77 -1.04021
-1.0359 4.77 -1.0415699
-0.992553 4.77 -1.0470799
-0.93699199 4.77 -1.0469301
-0.89480698 4.77 -1.0505799
-0.85065603 4.77 -1.04989
-0.81075001 4.77 -1.05242
-0.77048498 4.77 -1.0514101
-0.73074102 4.77 -1.05152
-0.703857 4.77 -1.0691
-0.69639099 4.77 -1.1131099
-0.67751098 4.77 -1.1430501
-0.63806099 4.77 -1.14153
-0.60737002 4.77 -1.15137
-0.57268596 4.77 -1.1525601
-0.53368002 4.77 -1.1485699
-0.50167102 4.77 -1.1511899
-0.469594 4.77 -1.15412
-0.43360999 4.77 -1.14355
-0.402349 4.77 -1.14512
-0.37027499 4.77 -1.1417099
-0.337809 4.77 -1.14157
-0.30716902 4.77 -1.14139
-0.27799201 4.77 -1.1401
-0.246957 4.77 -1.1344301
-0.221756 4.77 -1.1475201
-0.193569 4.77 -1.1528599
-0.165115 4.77 -1.16107
-0.13373899 4.77 -1.1487399
-0.10645 4.77 -1.15159
-0.0782746 4.77 -1.14633
-0.049458899 4.77 -1.13993
-0.0212225 4.77 -1.1443001
0.00626816 4.77 -1.14923
0.034859698 4.77 -1.14097
0.062214699 4.77 -1.1395501
0.091112703 4.77 -1.1378599
0.120169 4.77 -1.1344
0.147743 4.77 -1.1341701
0.175302 4.77 -1.1266899
0.202115 4.77 -1.12296
0.23062301 4.77 -1.1210201
0.26089999 4.77 -1.1230899
0.28786099 4.77 -1.12191
0.319323 4.77 -1.1286999
0.348214 4.77 -1.12143
0.37650299 4.77 -1.12017
0.40726 4.77 -1.11894
0.436028 4.77 -1.11315
0.471118 4.77 -1.1174999
0.50139302 4.77 -1.11467
0.53075999 4.77 -1.1065401
0.56476396 4.77 -1.1106601
0.60348797 4.77 -1.1180201
0.63910306 4.77 -1.11537
0.676678 4.77 -1.1199499
0.71842605 4.77 -1.1243199
0.75837797 4.77 -1.125
0.781672 4.77 -1.1022099
0.91463298 4.77 -1.10769
1.16211 4.77 -1.10341
1.21903 4.77 -1.10305
1.34109 4.77 -1.09999
1.48172 4.77 -1.10017
1.5358599 4.77 -1.0829301
1.61852 4.77 -1.08402
1.71762 4.77 -1.09227
-1.79914 4.77 -1.00692
-1.7078 4.77 -1.0122499
-1.62106 4.77 -1.0148
-1.53025 4.77 -1.0122499
-1.46237 4.77 -1.01921
-1.39858 4.77 -1.02548
-1.3286099 4.77 -1.0269799
-1.26324 4.77 -1.02695
-1.21341 4.77 -1.03521
-1.15738 4.77 -1.03926
-1.1011 4.77 -1.03694
-1.0595 4.77 -1.048
-1.00959 4.77 -1.0494699
-0.95570397 4.77 -1.0475501
-0.90913898 4.77 -1.0481501
-0.86767602 4.77 -1.05082
-0.82495099 4.77 -1.0505601
-0.78460103 4.77 -1.0531
-0.74754697 4.77 -1.05775
-0.71177804 4.77 -1.06024
-0.695714 4.77 -1.09403
-0.69594204 4.77 -1.15183
-0.649854 4.77 -1.14062
-0.61949402 4.77 -1.15143
-0.59082395 4.77 -1.1658399
-0.54785305 4.77 -1.1510201
-0.51372701 4.77 -1.15216
-0.48229802 4.77 -1.1545601
-0.447018 4.77 -1.14858
-0.41317201 4.77 -1.14684
-0.38088301 4.77 -1.1466501
-0.34969601 4.77 -1.1426899
-0.31919301 4.77 -1.1425
-0.28932998 4.77 -1.1457801
-0.26023701 4.77 -1.1442801
-0.23103701 4.77 -1.15002
-0.201674 4.77 -1.14741
-0.175025 4.77 -1.15178
-0.14721 4.77 -1.1596899
-0.116621 4.77 -1.15186
-0.087593101 4.77 -1.1449001
-0.059275102 4.77 -1.14296
-0.030590201 4.77 -1.1443399
-0.00407254 4.77 -1.1487399
0.025356501 4.77 -1.14772
0.0524626 4.77 -1.1443001
0.0804414 4.77 -1.14142
0.108985 4.77 -1.1516
0.13687199 4.77 -1.14837
0.168669 4.77 -1.1610601
0.19336599 4.77 -1.1402199
0.21970199 4.77 -1.1237199
0.247766 4.77 -1.12632
0.277334 4.77 -1.12275
0.30676001 4.77 -1.12518
0.335733 4.77 -1.12106
0.363334 4.77 -1.1203101
0.39453602 4.77 -1.1189799
0.42396 4.77 -1.11352
0.45568398 4.77 -1.11471
0.48821202 4.77 -1.11615
0.51524502 4.77 -1.10338
0.548244 4.77 -1.10413
0.58432204 4.77 -1.11208
0.62105 4.77 -1.11466
0.65820098 4.77 -1.1167099
0.68997496 4.77 -1.1109201
0.74026501 4.77 -1.13044
0.765423 4.77 -1.10657
0.79454303 4.77 -1.09297
0.93458396 4.77 -1.10765
1.0200599 4.77 -1.09567
1.12435 4.77 -1.09649
1.1738499 4.77 -1.09164
1.22462 4.77 -1.0840501
1.3111401 4.77 -1.1062801
1.36822 4.77 -1.0975
1.50152 4.77 -1.0896701
1.55538 4.77 -1.07461
1.67048 4.77 -1.09522
-1.9276299 4.77 -0.97292697
-1.8904001 4.77 -1.01309
-1.73665 4.77 -0.98693299
-1.66921 4.77 -1.0042
-1.61445 4.77 -1.0248101
-1.5157 4.77 -1.0151501
-1.4570401 4.77 -1.02854
-1.38449 4.77 -1.0285699
-1.3149101 4.77 -1.0279
-1.2575101 4.77 -1.0331601
-1.2064201 4.77 -1.0429599
-1.14633 4.77 -1.0406801
-1.08971 4.77 -1.0380601
-1.044 4.77 -1.04514
-0.99960303 4.77 -1.04934
-0.95970696 4.77 -1.0682
-0.90124595 4.77 -1.0523101
-0.85351503 4.77 -1.0475601
-0.81440198 4.77 -1.05181
-0.77277696 4.77 -1.0497299
-0.73646998 4.77 -1.05423
-0.70730698 4.77 -1.06862
-0.69632602 4.77 -1.1069499
-0.68219298 4.77 -1.1466601
-0.64355606 4.77 -1.14475
-0.61288899 4.77 -1.1549599
-0.57700598 4.77 -1.15572
-0.54188895 4.77 -1.1555001
-0.50459498 4.77 -1.1501801
-0.47393799 4.77 -1.15397
-0.437574 4.77 -1.14739
-0.40484601 4.77 -1.14424
-0.37494299 4.77 -1.14545
-0.342859 4.77 -1.1403199
-0.31190798 4.77 -1.13673
-0.28355601 4.77 -1.1425899
-0.253517 4.77 -1.14502
-0.22293401 4.77 -1.1353199
-0.19625999 4.77 -1.14404
-0.16896899 4.77 -1.1564699
-0.140862 4.77 -1.15242
-0.11207701 4.77 -1.15081
-0.082025498 4.77 -1.14607
-0.055234797 4.77 -1.1434201
-0.0267749 4.77 -1.1414399
0.0021919601 4.77 -1.14825
0.0286425 4.77 -1.14139
0.0564944 4.77 -1.14361
0.085769601 4.77 -1.14153
0.115579 4.77 -1.15096
0.14329299 4.77 -1.14381
0.171009 4.77 -1.13999
0.19682001 4.77 -1.12339
0.224586 4.77 -1.11791
0.25424299 4.77 -1.12359
0.28283802 4.77 -1.12525
0.31085402 4.77 -1.12328
0.341786 4.77 -1.12341
0.369517 4.77 -1.11854
0.399142 4.77 -1.11841
0.42860198 4.77 -1.11201
0.46247301 4.77 -1.11651
0.492268 4.77 -1.11382
0.51966697 4.77 -1.10185
0.55358195 4.77 -1.10202
0.59309995 4.77 -1.11253
0.62854201 4.77 -1.1159101
0.66552597 4.77 -1.1193399
0.70069897 4.77 -1.1165999
0.74836105 4.77 -1.13199
0.76709497 4.77 -1.0987099
1.1459 4.77 -1.1084
1.18611 4.77 -1.09164
1.2749599 4.77 -1.1199499
1.3095601 4.77 -1.09338
1.3793299 4.77 -1.0984
1.44713 4.77 -1.09297
1.50857 4.77 -1.0829
1.58935 4.77 -1.08342
1.6975 4.77 -1.09908
-1.9209599 4.77 -0.98604602
-1.7300999 4.77 -0.99887502
-1.62271 4.77 -0.99074703
-1.55189 4.77 -1.0006
-1.4904101 4.77 -1.01597
-1.41685 4.77 -1.01647
-1.34799 4.77 -1.01809
-1.29441 4.77 -1.0284699
-1.23137 4.77 -1.0286701
-1.19213 4.77 -1.04719
-1.1262801 4.77 -1.0399899
-1.07971 4.77 -1.0466601
-1.02803 4.77 -1.04899
-0.98354799 4.77 -1.05588
-0.92864501 4.77 -1.0473399
-0.890122 4.77 -1.0555301
-0.83876503 4.77 -1.04566
-0.80313301 4.77 -1.05259
-0.76708597 4.77 -1.0588399
-0.72855103 4.77 -1.0588101
-0.701855 4.77 -1.0781801
-0.69876701 4.77 -1.12988
-0.66724199 4.77 -1.14271
-0.63257098 4.77 -1.14487
-0.59928399 4.77 -1.14968
-0.56500596 4.77 -1.1552299
-0.52970999 4.77 -1.1506801
-0.49672401 4.77 -1.15442
-0.46243399 4.77 -1.1526999
-0.42754099 4.77 -1.1463701
-0.39651799 4.77 -1.1495301
-0.363428 4.77 -1.1428599
-0.33136401 4.77 -1.14033
-0.30262601 4.77 -1.1431201
-0.270466 4.77 -1.1416501
-0.24502601 4.77 -1.15121
-0.214646 4.77 -1.14938
-0.186638 4.77 -1.1499499
-0.15700901 4.77 -1.1584101
-0.129636 4.77 -1.16607
-0.098290302 4.77 -1.14504
-0.0710366 4.77 -1.1460501
-0.0427403 4.77 -1.1434499
-0.0140877 4.77 -1.14791
0.0136937 4.77 -1.14117
0.04078 4.77 -1.1410201
0.068383999 4.77 -1.1384499
0.098247804 4.77 -1.13726
0.128754 4.77 -1.1495601
0.155449 4.77 -1.14222
0.182813 4.77 -1.13816
0.21007201 4.77 -1.12149
0.237764 4.77 -1.1231099
0.26685402 4.77 -1.12503
0.295681 4.77 -1.11936
0.32598999 4.77 -1.1275699
0.35462999 4.77 -1.1194201
0.38589898 4.77 -1.12173
0.415575 4.77 -1.11614
0.441728 4.77 -1.1063199
0.483657 4.77 -1.13255
0.50878203 4.77 -1.1115999
0.53678697 4.77 -1.1036299
0.57236499 4.77 -1.1076
0.61465698 4.77 -1.1181999
0.64562595 4.77 -1.11334
0.67981797 4.77 -1.1107199
0.73034805 4.77 -1.13003
0.75755703 4.77 -1.1119699
0.791179 4.77 -1.10218
0.84931797 4.77 -1.1264399
0.922373 4.77 -1.10842
1.17941 4.77 -1.10948
1.21798 4.77 -1.09188
1.36034 4.77 -1.10527
1.49537 4.77 -1.10021
1.56782 4.77 -1.09526
1.6753 4.77 -1.11017
1.70196 4.77 -1.06932
-1.89219 4.8000002 -0.979114
-1.7723399 4.8000002 -0.97485399
-1.72606 4.8000002 -1.00535
-1.59991 4.8000002 -0.98583502
-1.52961 4.8000002 -0.994528
-1.45451 4.8000002 -0.99848902
-1.4050601 4.8000002 -1.01616
-1.3298399 4.8000002 -1.0118099
-1.26923 4.8000002 -1.0175301
-1.22628 4.8000002 -1.0324
-1.15957 4.8000002 -1.0259
-1.10052 4.8000002 -1.02513
-1.05764 4.8000002 -1.03313
-1.01616 4.8000002 -1.04311
-0.965756 4.8000002 -1.0464699
-0.91328496 4.8000002 -1.0425501
-0.86517501 4.8000002 -1.0379499
-0.82919097 4.8000002 -1.0459399
-0.78645396 4.8000002 -1.04484
-0.74763501 4.8000002 -1.04573
-0.71712905 4.8000002 -1.05572
-0.70461899 4.8000002 -1.0954499
-0.69510102 4.8000002 -1.1391801
-0.65794098 4.8000002 -1.14174
-0.61937702 4.8000002 -1.1392701
-0.58869499 4.8000002 -1.1484001
-0.554268 4.8000002 -1.15072
-0.516693 4.8000002 -1.14535
-0.48559999 4.8000002 -1.14748
-0.448854 4.8000002 -1.14222
-0.418679 4.8000002 -1.14351
-0.38460502 4.8000002 -1.14118
-0.35361201 4.8000002 -1.13991
-0.322862 4.8000002 -1.14121
-0.29245901 4.8000002 -1.14112
-0.26485902 4.8000002 -1.14296
-0.235247 4.8000002 -1.14508
-0.207702 4.8000002 -1.1504
-0.17911099 4.8000002 -1.1595
-0.149967 4.8000002 -1.16363
-0.121226 4.8000002 -1.14736
-0.092376098 4.8000002 -1.1457801
-0.063888602 4.8000002 -1.14722
-0.036663301 4.8000002 -1.1686801
-0.0078641502 4.8000002 -1.1534699
0.0213199 4.8000002 -1.1495501
0.0489976 4.8000002 -1.1437
0.077196702 4.8000002 -1.1584301
0.107319 4.8000002 -1.14398
0.136245 4.8000002 -1.1484499
0.164424 4.8000002 -1.145
0.19016001 4.8000002 -1.1250401
0.21765199 4.8000002 -1.12463
0.247858 4.8000002 -1.12528
0.27616 4.8000002 -1.1245899
0.30552599 4.8000002 -1.12915
0.33466199 4.8000002 -1.12529
0.36472198 4.8000002 -1.1245899
0.39719698 4.8000002 -1.1265301
0.42606699 4.8000002 -1.1218101
0.46090999 4.8000002 -1.12661
0.49032101 4.8000002 -1.12014
0.52426803 4.8000002 -1.1251
0.55708301 4.8000002 -1.1203901
0.59523904 4.8000002 -1.12837
0.63001901 4.8000002 -1.12139
0.66741699 4.8000002 -1.12462
0.71469396 4.8000002 -1.14029
0.74594301 4.8000002 -1.127
0.77682704 4.8000002 -1.11265
1.00108 4.8000002 -1.1130301
1.0469301 4.8000002 -1.10989
1.1001999 4.8000002 -1.1098399
1.1554101 4.8000002 -1.11151
1.20112 4.8000002 -1.09821
1.2935899 4.8000002 -1.1263599
1.3501099 4.8000002 -1.11852
1.4845999 4.8000002 -1.11429
1.54813 4.8000002 -1.10236
1.65417 4.8000002 -1.1197
-1.79247 4.8000002 -0.99166602
-1.72386 4.8000002 -1.00911
-1.58707 4.8000002 -0.983307
-1.5355999 4.8000002 -1.0032001
-1.44341 4.8000002 -0.99609196
-1.40271 4.8000002 -1.01854
-1.32648 4.8000002 -1.01498
-1.26737 4.8000002 -1.0194501
-1.21811 4.8000002 -1.0300699
-1.16275 4.8000002 -1.03324
-1.1005 4.8000002 -1.02624
-1.05478 4.8000002 -1.03427
-1.01903 4.8000002 -1.04835
-0.95174402 4.8000002 -1.03354
-0.91048402 4.8000002 -1.03935
-0.86489201 4.8000002 -1.0381899
-0.82463801 4.8000002 -1.0425301
-0.784199 4.8000002 -1.04185
-0.74706405 4.8000002 -1.04614
-0.71684098 4.8000002 -1.05591
-0.70805901 4.8000002 -1.09948
-0.69148701 4.8000002 -1.13465
-0.65794098 4.8000002 -1.14174
-0.62183803 4.8000002 -1.1430501
-0.591546 4.8000002 -1.15396
-0.55303496 4.8000002 -1.1457601
-0.51732999 4.8000002 -1.14094
-0.485071 4.8000002 -1.14797
-0.45283401 4.8000002 -1.14683
-0.41673499 4.8000002 -1.1391701
-0.38736302 4.8000002 -1.14421
-0.355064 4.8000002 -1.1412901
-0.32466102 4.8000002 -1.14044
-0.29463801 4.8000002 -1.14443
-0.26607698 4.8000002 -1.14396
-0.23437801 4.8000002 -1.13301
-0.20936 4.8000002 -1.15061
-0.17694201 4.8000002 -1.1433901
-0.15154099 4.8000002 -1.15107
-0.122504 4.8000002 -1.14748
-0.093829595 4.8000002 -1.14817
-0.065111704 4.8000002 -1.1466501
-0.037209202 4.8000002 -1.1559
-0.0088021001 4.8000002 -1.15272
0.018615 4.8000002 -1.15685
0.047280602 4.8000002 -1.1475301
0.075539902 4.8000002 -1.13825
0.104972 4.8000002 -1.15976
0.13345501 4.8000002 -1.14903
0.160988 4.8000002 -1.1454899
0.187133 4.8000002 -1.1258
0.213176 4.8000002 -1.12116
0.242797 4.8000002 -1.1271501
0.27199599 4.8000002 -1.12483
0.30263901 4.8000002 -1.12578
0.33059999 4.8000002 -1.12623
0.35997102 4.8000002 -1.12139
0.39065701 4.8000002 -1.1245799
0.42138699 4.8000002 -1.1233101
0.451702 4.8000002 -1.12064
0.48242199 4.8000002 -1.1186601
0.512941 4.8000002 -1.11106
0.549788 4.8000002 -1.1186999
0.58438301 4.8000002 -1.12334
0.62079304 4.8000002 -1.12138
0.66256601 4.8000002 -1.13328
0.70112598 4.8000002 -1.13577
0.73686999 4.8000002 -1.13265
0.76739299 4.8000002 -1.1191801
0.857086 4.8000002 -1.1284
1.05726 4.8000002 -1.14061
1.08973 4.8000002 -1.1204699
1.13309 4.8000002 -1.1104499
1.18979 4.8000002 -1.11011
1.23496 4.8000002 -1.0980101
1.30205 4.8000002 -1.10348
1.3794 4.8000002 -1.1139101
1.46413 4.8000002 -1.1234699
1.50875 4.8000002 -1.10184
1.6006801 4.8000002 -1.1110799
1.68876 4.8000002 -1.1124699
-1.82489 4.8000002 -0.98761702
-1.71242 4.8000002 -0.97996897
-1.6352299 4.8000002 -0.992284
-1.56337 4.8000002 -1.00078
-1.4864 4.8000002 -1.00318
-1.41202 4.8000002 -1.0060201
-1.35826 4.8000002 -1.01773
-1.29126 4.8000002 -1.0179501
-1.23441 4.8000002 -1.02267
-1.1785899 4.8000002 -1.0284899
-1.12611 4.8000002 -1.0302
-1.07976 4.8000002 -1.0375999
-1.02547 4.8000002 -1.03502
-0.97525299 4.8000002 -1.03899
-0.92724001 4.8000002 -1.03888
-0.88325799 4.8000002 -1.03874
-0.84117198 4.8000002 -1.0434101
-0.80267102 4.8000002 -1.0466501
-0.76261902 4.8000002 -1.04725
-0.73158199 4.8000002 -1.0564201
-0.70814097 4.8000002 -1.0794499
-0.70290101 4.8000002 -1.12761
-0.670174 4.8000002 -1.1349
-0.635759 4.8000002 -1.1425301
-0.56675601 4.8000002 -1.1476899
-0.53000998 4.8000002 -1.1439301
-0.499547 4.8000002 -1.14802
-0.46517003 4.8000002 -1.1459399
-0.42992699 4.8000002 -1.1404001
-0.39750502 4.8000002 -1.13728
-0.36702499 4.8000002 -1.1380301
-0.334443 4.8000002 -1.13474
-0.30654699 4.8000002 -1.1415601
-0.27509001 4.8000002 -1.1281999
-0.24956301 4.8000002 -1.1464
-0.221039 4.8000002 -1.15224
-0.19262601 4.8000002 -1.15302
-0.162834 4.8000002 -1.14952
-0.13573599 4.8000002 -1.14951
-0.105805 4.8000002 -1.1446199
-0.076411001 4.8000002 -1.1419499
-0.0497806 4.8000002 -1.1401601
-0.021544 4.8000002 -1.1448001
0.0062831501 4.8000002 -1.1519799
0.0350658 4.8000002 -1.14771
0.062623501 4.8000002 -1.14704
0.088920899 4.8000002 -1.1377801
0.1206 4.8000002 -1.15045
0.14931101 4.8000002 -1.1511099
0.17545599 4.8000002 -1.1276801
0.203612 4.8000002 -1.12599
0.231328 4.8000002 -1.12445
0.25948098 4.8000002 -1.12394
0.288793 4.8000002 -1.12554
0.318643 4.8000002 -1.1262901
0.34818399 4.8000002 -1.1245799
0.37893599 4.8000002 -1.12436
0.40989003 4.8000002 -1.1233001
0.439037 4.8000002 -1.1208299
0.47164199 4.8000002 -1.1221601
0.50139701 4.8000002 -1.1155
0.53233695 4.8000002 -1.1121601
0.570517 4.8000002 -1.11895
0.608594 4.8000002 -1.12748
0.64260697 4.8000002 -1.1257499
0.67760104 4.8000002 -1.1249399
0.71671897 4.8000002 -1.1257
0.960141 4.8000002 -1.11246
1.00955 4.8000002 -1.11448
1.07135 4.8000002 -1.12774
1.1149499 4.8000002 -1.11738
1.15892 4.8000002 -1.10821
1.20321 4.8000002 -1.0959201
1.2814599 4.8000002 -1.11212
1.35106 4.8000002 -1.1162
1.4959301 4.8000002 -1.11834
1.54127 4.8000002 -1.09431
1.6556 4.8000002 -1.1180301
-1.76138 4.8000002 -0.94209498
-1.7268599 4.8000002 -0.97887403
-1.6406701 4.8000002 -0.98277396
-1.55801 4.8000002 -0.98778701
-1.48286 4.8000002 -0.99140304
-1.42539 4.8000002 -1.00445
-1.35581 4.8000002 -1.00554
-1.29565 4.8000002 -1.01113
