# .PCD v0.7 - Point Cloud Data file format
VERSION 0.7
FIELDS x y z
SIZE 4 4 4
TYPE F F F
COUNT 1 1 1
WIDTH 1858
HEIGHT 1
VIEWPOINT 0 0 0 1 0 0 0
POINTS 1858
DATA ascii
0.81601202 1.71 -0.99652803
0.86360103 1.71 -1.00226
0.88793796 1.71 -0.98076302
0.93400097 1.71 -0.98476899
0.97094595 1.71 -0.97253603
1.00722 1.71 -0.96262699
1.05181 1.71 -0.95696598
1.08166 1.71 -0.93613499
1.1134499 1.71 -0.91786104
1.1510401 1.71 -0.90384805
1.1896701 1.71 -0.88584399
1.24462 1.71 -0.88164896
1.27851 1.71 -0.85983396
1.32602 1.71 -0.844769
1.36625 1.71 -0.82448202
1.41278 1.71 -0.807468
1.44161 1.71 -0.77663398
1.38731 1.71 -0.70353496
1.4983799 1.71 -0.71619701
1.5488199 1.71 -0.69413704
-1.97674 1.71 -1.1098599
-1.85636 1.71 -1.10236
-1.7468001 1.71 -1.0961601
-1.54027 1.71 -1.07663
-1.46909 1.71 -1.0815001
-1.40189 1.71 -1.0866899
-1.3315101 1.71 -1.08366
-1.2613499 1.71 -1.08147
-1.2023001 1.71 -1.08315
-1.14228 1.71 -1.07926
-1.0833299 1.71 -1.0750899
-1.02634 1.71 -1.06979
-0.97522497 1.71 -1.07305
-0.92691398 1.71 -1.07277
-0.88027799 1.71 -1.07024
-0.83601898 1.71 -1.0682499
-0.78869802 1.71 -1.06283
-0.74999297 1.71 -1.06429
-0.706258 1.71 -1.05761
-0.67030102 1.71 -1.05597
-0.62887597 1.71 -1.04922
-0.59426701 1.71 -1.0476999
-0.56035501 1.71 -1.04698
-0.52660698 1.71 -1.0461899
-0.490329 1.71 -1.0352499
-0.463817 1.71 -1.04713
-0.43194401 1.71 -1.0404
-0.400859 1.71 -1.0375
-0.36920199 1.71 -1.03274
-0.35069603 1.71 -1.0615699
-0.33537298 1.71 -1.10341
-0.312691 1.71 -1.1227701
-0.28521499 1.71 -1.1346999
-0.256221 1.71 -1.1395501
-0.227578 1.71 -1.13924
-0.199185 1.71 -1.1387099
-0.170424 1.71 -1.14034
-0.142638 1.71 -1.14364
-0.11474 1.71 -1.13949
-0.084052697 1.71 -1.11057
-0.056405399 1.71 -1.11708
-0.028515302 1.71 -1.11213
-0.00149171 1.71 -1.094
0.0254492 1.71 -1.0724499
0.050628897 1.71 -1.0540301
0.074713796 1.71 -1.03205
0.100787 1.71 -1.01199
0.122483 1.71 -0.98642498
0.149037 1.71 -1.00097
0.17270799 1.71 -1.0002
0.19811399 1.71 -0.995987
0.221356 1.71 -0.98826301
0.246346 1.71 -0.98233199
0.27084699 1.71 -0.978715
0.29360199 1.71 -0.96978003
0.31961301 1.71 -0.96836901
0.34605899 1.71 -0.96800202
0.369919 1.71 -0.96288705
0.39545998 1.71 -0.9562
0.41921201 1.71 -0.94712204
0.44160402 1.71 -0.93965399
0.46532002 1.71 -0.92757899
0.50047797 1.71 -0.94064397
0.53112596 1.71 -0.942958
0.56690401 1.71 -0.95169801
0.60647601 1.71 -0.96469998
0.67184299 1.71 -1.01625
0.71788001 1.71 -1.03001
0.74845004 1.71 -1.0207601
0.78164601 1.71 -1.01236
0.810238 1.71 -0.99833196
0.85421997 1.71 -1.00404
0.88516402 1.71 -0.990655
0.92145395 1.71 -0.98114204
0.96043402 1.71 -0.975214
1.00106 1.71 -0.967237
1.0419 1.71 -0.958911
1.07532 1.71 -0.94302899
1.1083699 1.71 -0.92438298
1.14056 1.71 -0.90622604
1.1832 1.71 -0.89363199
1.22289 1.71 -0.87681699
1.2666899 1.71 -0.86347103
1.32548 1.71 -0.85718399
1.36569 1.71 -0.83791804
1.40683 1.71 -0.81530297
1.4351801 1.71 -0.78533304
1.40289 1.71 -0.72302198
1.4936601 1.71 -0.72598898
1.5431 1.71 -0.70374101
1.5708101 1.71 -0.67132396
-1.8385999 1.74 -1.13222
-1.49492 1.74 -1.08301
-1.4338001 1.74 -1.094
-1.3742501 1.74 -1.1035601
-1.2951 1.74 -1.09699
-1.22861 1.74 -1.09237
-1.1649799 1.74 -1.09052
-1.1097 1.74 -1.0893101
-1.04723 1.74 -1.0808901
-0.99278003 1.74 -1.0834301
-0.94814503 1.74 -1.0871199
-0.89736795 1.74 -1.08077
-0.84695297 1.74 -1.0755601
-0.801898 1.74 -1.0732601
-0.760131 1.74 -1.06998
-0.71922702 1.74 -1.0681801
-0.67552 1.74 -1.0603499
-0.637317 1.74 -1.0561
-0.60187703 1.74 -1.05775
-0.56585401 1.74 -1.0531
-0.52921301 1.74 -1.04852
-0.49975201 1.74 -1.0529201
-0.468494 1.74 -1.0538001
-0.439134 1.74 -1.0569
-0.40112901 1.74 -1.0381999
-0.368411 1.74 -1.0340799
-0.34139001 1.74 -1.0391099
-0.32365301 1.74 -1.0732601
-0.306867 1.74 -1.1147901
-0.283335 1.74 -1.13904
-0.25525102 1.74 -1.1410501
-0.22502799 1.74 -1.1443299
-0.195273 1.74 -1.1401501
-0.16634399 1.74 -1.1406801
-0.138473 1.74 -1.14063
-0.109718 1.74 -1.13621
-0.079129502 1.74 -1.1184499
-0.050446801 1.74 -1.12036
-0.023285601 1.74 -1.10876
0.0047712796 1.74 -1.09349
0.032331601 1.74 -1.06776
0.057388198 1.74 -1.05644
0.082088895 1.74 -1.03224
0.108119 1.74 -1.01274
0.130245 1.74 -0.99349904
0.155457 1.74 -0.98151499
0.181215 1.74 -0.99132299
0.20652699 1.74 -0.994277
0.231887 1.74 -0.98841304
0.257146 1.74 -0.98653698
0.28208101 1.74 -0.97969896
0.30630398 1.74 -0.97239798
0.32912499 1.74 -0.96438503
0.35415602 1.74 -0.96240503
0.37989098 1.74 -0.95523101
0.40494901 1.74 -0.94896001
0.42992899 1.74 -0.94203103
0.45703799 1.74 -0.93836606
0.4858 1.74 -0.940718
0.51300299 1.74 -0.933873
0.54667604 1.74 -0.94270897
0.58324295 1.74 -0.95351601
0.62856501 1.74 -0.97196299
0.68508804 1.74 -1.00737
0.72993404 1.74 -1.0162801
0.763125 1.74 -1.00983
0.79390103 1.74 -0.99862903
0.82436502 1.74 -0.987351
0.86912298 1.74 -0.99049997
0.90132701 1.74 -0.97665197
0.92206204 1.74 -0.95014602
0.97965902 1.74 -0.96375895
1.01597 1.74 -0.95156002
1.0614799 1.74 -0.945849
1.09626 1.74 -0.92907798
1.12296 1.74 -0.90581
1.1508399 1.74 -0.88207704
1.2005501 1.74 -0.87274796
1.2480301 1.74 -0.86326897
1.2878801 1.74 -0.84437203
1.3282 1.74 -0.82392198
1.3687199 1.74 -0.803725
1.4155699 1.74 -0.78415698
1.45656 1.74 -0.76126802
1.4166601 1.74 -0.69622201
1.5246899 1.74 -0.704907
1.58201 1.74 -0.68326396
-1.78657 1.74 -1.1089301
-1.67048 1.74 -1.09522
-1.58225 1.74 -1.0950899
-1.5007499 1.74 -1.09286
-1.4558001 1.74 -1.11708
-1.3643299 1.74 -1.10113
-1.2792901 1.74 -1.0878
-1.2141 1.74 -1.0842199
-1.1621701 1.74 -1.0920601
-1.0969399 1.74 -1.0826701
-1.03984 1.74 -1.07796
-0.98198903 1.74 -1.07636
-0.93806702 1.74 -1.0803101
-0.88966602 1.74 -1.07805
-0.84517699 1.74 -1.0763199
-0.79773104 1.74 -1.06951
-0.75202197 1.74 -1.06347
-0.71428603 1.74 -1.06397
-0.67384696 1.74 -1.05964
-0.63507301 1.74 -1.05629
-0.59850204 1.74 -1.05449
-0.56143403 1.74 -1.05037
-0.52470201 1.74 -1.04099
-0.49182698 1.74 -1.0384201
-0.46457699 1.74 -1.05116
-0.43568501 1.74 -1.05346
-0.400473 1.74 -1.0381899
-0.37026599 1.74 -1.03661
-0.34258199 1.74 -1.04082
-0.32589099 1.74 -1.08068
-0.30925298 1.74 -1.1174999
-0.28443101 1.74 -1.14212
-0.25717002 1.74 -1.1452299
-0.22550701 1.74 -1.1434799
-0.19709599 1.74 -1.13958
-0.166894 1.74 -1.1401
-0.13937601 1.74 -1.14026
-0.110289 1.74 -1.1356601
-0.080295801 1.74 -1.11762
-0.0519397 1.74 -1.11955
-0.0241709 1.74 -1.10774
0.0020883901 1.74 -1.094
0.0284725 1.74 -1.06512
0.056408599 1.74 -1.05975
0.079254501 1.74 -1.03221
0.104573 1.74 -1.01086
0.128987 1.74 -0.99441898
0.15330701 1.74 -0.99425
0.178103 1.74 -0.99264896
0.20311201 1.74 -0.99140799
0.227606 1.74 -0.98709899
0.25354299 1.74 -0.98592103
0.27767199 1.74 -0.98147696
0.30352399 1.74 -0.97562599
0.32691801 1.74 -0.96566302
0.35135299 1.74 -0.96369797
0.37913299 1.74 -0.961716
0.400837 1.74 -0.951518
0.42668799 1.74 -0.94240505
0.45141199 1.74 -0.93914396
0.480809 1.74 -0.93794399
0.508259 1.74 -0.937316
0.54308099 1.74 -0.94420803
0.57635301 1.74 -0.947469
0.62351298 1.74 -0.974024
0.67981797 1.74 -1.0055
0.72451395 1.74 -1.01984
0.75618798 1.74 -1.01036
0.78917903 1.74 -1.00332
0.83307397 1.74 -1.00612
0.86474198 1.74 -0.99532002
0.90077001 1.74 -0.98463398
0.91634697 1.74 -0.95462
0.97109997 1.74 -0.964239
1.01235 1.74 -0.95649904
1.05367 1.74 -0.94820499
1.08257 1.74 -0.92818105
1.10944 1.74 -0.90342903
1.14621 1.74 -0.888493
1.194 1.74 -0.87999296
1.2407 1.74 -0.86723697
1.28302 1.74 -0.85173297
1.32955 1.74 -0.83685899
1.3580699 1.74 -0.808469
1.4158499 1.74 -0.79646897
1.4396 1.74 -0.76343399
1.4053 1.74 -0.70113701
1.51202 1.74 -0.70959103
1.56362 1.74 -0.688519
-1.8099301 1.74 -1.1234399
-1.58255 1.74 -1.09466
-1.50015 1.74 -1.09368
-1.4308101 1.74 -1.0979
-1.3643199 1.74 -1.10234
-1.2857901 1.74 -1.0921201
-1.2134 1.74 -1.08538
-1.16162 1.74 -1.09155
-1.1015 1.74 -1.0865899
-1.03925 1.74 -1.0785301
-0.98674798 1.74 -1.0798
-0.94302005 1.74 -1.08363
-0.89150405 1.74 -1.07848
-0.848279 1.74 -1.08088
-0.80116302 1.74 -1.0735
-0.75462198 1.74 -1.06653
-0.71765602 1.74 -1.0677299
-0.674384 1.74 -1.06048
-0.63536102 1.74 -1.05611
-0.599612 1.74 -1.0544399
-0.56429899 1.74 -1.05366
-0.52830297 1.74 -1.04813
-0.49346501 1.74 -1.04041
-0.46704099 1.74 -1.05363
-0.43798301 1.74 -1.0533199
-0.40193999 1.74 -1.0403
-0.371481 1.74 -1.0364399
-0.34475499 1.74 -1.0416801
-0.323668 1.74 -1.0659399
-0.31141698 1.74 -1.1181999
-0.286318 1.74 -1.1377801
-0.25930101 1.74 -1.14449
-0.230409 1.74 -1.1501501
-0.200022 1.74 -1.13983
-0.17143101 1.74 -1.14069
-0.14354201 1.74 -1.14327
-0.112802 1.74 -1.1389301
-0.083399102 1.74 -1.11814
-0.056439299 1.74 -1.12383
-0.027437901 1.74 -1.10541
-0.0011947301 1.74 -1.09525
0.0264268 1.74 -1.0646701
0.0514949 1.74 -1.0599999
0.077220999 1.74 -1.03913
0.101489 1.74 -1.01343
0.126086 1.74 -0.99983102
0.150379 1.74 -0.99140996
0.176634 1.74 -0.99697399
0.20110101 1.74 -0.99538898
0.224548 1.74 -0.98984998
0.25062901 1.74 -0.98460197
0.274863 1.74 -0.98382598
0.29621702 1.74 -0.96793902
0.32272398 1.74 -0.96364599
0.34822801 1.74 -0.96164203
0.37408599 1.74 -0.95886201
0.39894399 1.74 -0.95502299
0.422111 1.74 -0.94391698
0.44696301 1.74 -0.93905497
0.47603801 1.74 -0.93616903
0.50485301 1.74 -0.93773603
0.53286099 1.74 -0.93824297
0.56988502 1.74 -0.95020801
0.60907799 1.74 -0.96010101
0.66545695 1.74 -0.99828196
0.719482 1.74 -1.02218
0.74811703 1.74 -1.01045
0.78059196 1.74 -1.00305
0.80744302 1.74 -0.98771101
0.856314 1.74 -0.995996
0.89099103 1.74 -0.98575503
0.91524798 1.74 -0.96499801
0.96124202 1.74 -0.96597201
0.99704301 1.74 -0.95446098
1.0391999 1.74 -0.94704902
1.0762299 1.74 -0.93400401
1.11259 1.74 -0.91969705
1.1497099 1.74 -0.9023
1.1770799 1.74 -0.87846804
1.2271501 1.74 -0.87128299
1.27289 1.74 -0.85655403
1.29941 1.74 -0.82931095
1.33904 1.74 -0.81005502
1.3978001 1.74 -0.79941398
1.43328 1.74 -0.77365696
1.39364 1.74 -0.70818102
1.5060799 1.74 -0.72038203
1.53863 1.74 -0.69058001
1.59094 1.74 -0.66866803
-1.8556701 1.74 -1.10401
-1.7679399 1.74 -1.11279
-1.56593 1.74 -1.09839
-1.48431 1.74 -1.09583
-1.4082099 1.74 -1.09404
-1.32963 1.74 -1.08636
-1.26662 1.74 -1.08838
-1.20761 1.74 -1.09032
-1.15075 1.74 -1.09322
-1.08547 1.74 -1.08252
-1.0338399 1.74 -1.08233
-0.97698796 1.74 -1.0809001
-0.923985 1.74 -1.0753001
-0.880862 1.74 -1.07752
-0.831182 1.74 -1.07107
-0.78979403 1.74 -1.06917
-0.74766499 1.74 -1.06654
-0.70962298 1.74 -1.0676899
-0.66568702 1.74 -1.05888
-0.62729198 1.74 -1.0556899
-0.59287798 1.74 -1.0539399
-0.55736601 1.74 -1.0531
-0.52020502 1.74 -1.0440799
-0.48597801 1.74 -1.0414399
-0.459759 1.74 -1.0511
-0.429198 1.74 -1.0490999
-0.39478698 1.74 -1.04117
-0.36517301 1.74 -1.0384101
-0.338245 1.74 -1.0390799
-0.32622102 1.74 -1.09363
-0.30494198 1.74 -1.11972
-0.280729 1.74 -1.1391701
-0.25268799 1.74 -1.14572
-0.22428399 1.74 -1.1454999
-0.192017 1.74 -1.13791
-0.164167 1.74 -1.141
-0.136576 1.74 -1.1406
-0.106859 1.74 -1.13573
-0.077189103 1.74 -1.1125799
-0.051057901 1.74 -1.12034
-0.022051301 1.74 -1.10753
0.0053689098 1.74 -1.09374
0.030796101 1.74 -1.06505
0.058540601 1.74 -1.05638
0.082592003 1.74 -1.0314499
0.107208 1.74 -1.0068099
0.128528 1.74 -0.986664
0.15597799 1.74 -0.99712402
0.180673 1.74 -0.99294704
0.20537601 1.74 -0.99145204
0.22889501 1.74 -0.98654401
0.25429499 1.74 -0.98107898
0.279825 1.74 -0.98294502
0.30212101 1.74 -0.96925503
0.32861403 1.74 -0.96720004
0.354752 1.74 -0.96564901
0.377693 1.74 -0.95959604
0.40385401 1.74 -0.952142
0.426431 1.74 -0.94252098
0.45247501 1.74 -0.93807703
0.48129299 1.74 -0.93825704
0.50943398 1.74 -0.93582398
0.54357898 1.74 -0.94507504
0.576352 1.74 -0.94688499
0.62201601 1.74 -0.96993595
0.68177801 1.74 -1.0084001
0.72577101 1.74 -1.01926
0.75654 1.74 -1.00853
0.7895 1.74 -1.00148
0.81388301 1.74 -0.984034
0.86457801 1.74 -0.99513203
0.90006405 1.74 -0.98493999
0.92119801 1.74 -0.95862597
0.97926098 1.74 -0.97234195
1.01113 1.74 -0.95743102
1.0534101 1.74 -0.948493
1.08276 1.74 -0.92834401
1.1275699 1.74 -0.920753
1.1514 1.74 -0.89200801
1.1946501 1.74 -0.87996399
1.2385601 1.74 -0.867248
1.28282 1.74 -0.85159498
1.33058 1.74 -0.83851701
1.35548 1.74 -0.80842698
1.4090999 1.74 -0.794698
1.44471 1.74 -0.76766199
1.37774 1.74 -0.689735
1.51099 1.74 -0.71061498
1.5536801 1.74 -0.68565995
-1.85754 1.74 -1.12857
-1.67998 1.74 -1.0806
-1.53808 1.74 -1.09837
-1.45082 1.74 -1.09141
-1.38252 1.74 -1.09479
-1.3118199 1.74 -1.09224
-1.2436 1.74 -1.08821
-1.18519 1.74 -1.0908
-1.1250501 1.74 -1.08645
-1.06604 1.74 -1.0824399
-1.00854 1.74 -1.0797499
-0.95947498 1.74 -1.0791401
-0.91154903 1.74 -1.07736
-0.86661202 1.74 -1.0755601
-0.82156003 1.74 -1.07249
-0.77661496 1.74 -1.07015
-0.73098296 1.74 -1.05987
-0.69324201 1.74 -1.0605201
-0.65916401 1.74 -1.0632499
-0.61759102 1.74 -1.05503
-0.58191198 1.74 -1.0531801
-0.54780799 1.74 -1.05303
-0.51604402 1.74 -1.05367
-0.48324302 1.74 -1.05125
-0.45198199 1.74 -1.0520201
-0.419267 1.74 -1.04099
-0.38820499 1.74 -1.0383
-0.356372 1.74 -1.03406
-0.32995901 1.74 -1.0425301
-0.322061 1.74 -1.1060699
-0.2974 1.74 -1.11968
-0.27295598 1.74 -1.1410601
-0.24487101 1.74 -1.14741
-0.21489501 1.74 -1.14552
-0.18644099 1.74 -1.14087
-0.15759501 1.74 -1.14167
-0.12783501 1.74 -1.14136
-0.100043 1.74 -1.1363499
-0.069555394 1.74 -1.11233
-0.0435488 1.74 -1.11615
-0.0153193 1.74 -1.10139
0.0120277 1.74 -1.07568
0.037229598 1.74 -1.05785
0.062746495 1.74 -1.0493801
0.086660601 1.74 -1.01606
0.112423 1.74 -1.00624
0.13481399 1.74 -0.98456299
0.160624 1.74 -0.99309397
0.186772 1.74 -0.99410701
0.21213099 1.74 -0.99002898
0.236422 1.74 -0.98476803
0.26001501 1.74 -0.98216498
0.285788 1.74 -0.981489
0.30929002 1.74 -0.968041
0.33482 1.74 -0.96639204
0.36036301 1.74 -0.96303499
0.38424399 1.74 -0.95779997
0.4093 1.74 -0.94981402
0.43041798 1.74 -0.93768203
0.46132001 1.74 -0.94128197
0.48623902 1.74 -0.93654901
0.51819503 1.74 -0.93786198
0.55035496 1.74 -0.94548702
0.58519298 1.74 -0.95261401
0.62651396 1.74 -0.96763301
0.68899596 1.74 -1.0101501
0.73168403 1.74 -1.0187199
0.761015 1.74 -1.00704
0.789859 1.74 -0.99577302
0.83455402 1.74 -1.0006599
0.86561698 1.74 -0.98759001
0.90613002 1.74 -0.98616397
0.92389601 1.74 -0.95672196
0.97843701 1.74 -0.96571195
1.0147001 1.74 -0.95401204
1.06068 1.74 -0.94825095
1.09017 1.74 -0.92852396
1.12578 1.74 -0.91265696
1.1534899 1.74 -0.89011401
1.1979201 1.74 -0.87634498
1.24673 1.74 -0.86690098
1.2851801 1.74 -0.84711701
1.3335899 1.74 -0.83230603
1.3660799 1.74 -0.8082
1.41846 1.74 -0.79335797
1.44742 1.74 -0.76253498
1.39381 1.74 -0.69113302
1.51467 1.74 -0.70630103
1.5643901 1.74 -0.68427896
-1.91828 1.77 -1.1469301
-1.82603 1.77 -1.15284
-1.71615 1.77 -1.14399
-1.68577 1.77 -1.1865699
-1.5001899 1.77 -1.11388
-1.44524 1.77 -1.12787
-1.3708199 1.77 -1.12563
-1.29108 1.77 -1.11553
-1.22223 1.77 -1.11142
-1.1696999 1.77 -1.11791
-1.10453 1.77 -1.1069399
-1.04449 1.77 -1.1018699
-0.99115098 1.77 -1.1038101
-0.93706703 1.77 -1.0989799
-0.88995397 1.77 -1.0965501
-0.84583503 1.77 -1.09735
-0.79427302 1.77 -1.08698
-0.75125599 1.77 -1.0829301
-0.71375501 1.77 -1.0841401
-0.66978103 1.77 -1.07579
-0.63023603 1.77 -1.0699301
-0.594428 1.77 -1.0682499
-0.55926299 1.77 -1.06651
-0.525962 1.77 -1.06801
-0.49266902 1.77 -1.0656199
-0.45854902 1.77 -1.06171
-0.42699999 1.77 -1.06186
-0.39419001 1.77 -1.04994
-0.36162499 1.77 -1.04468
-0.33301097 1.77 -1.04523
-0.30522299 1.77 -1.04717
-0.29670998 1.77 -1.1183101
-0.27145499 1.77 -1.1293299
-0.245234 1.77 -1.14452
-0.217746 1.77 -1.1503199
-0.187659 1.77 -1.15029
-0.15807401 1.77 -1.1451401
-0.129391 1.77 -1.1411899
-0.101703 1.77 -1.14449
-0.0715198 1.77 -1.13876
-0.043312199 1.77 -1.11791
-0.014278 1.77 -1.1139101
0.0126131 1.77 -1.1011801
0.038850799 1.77 -1.0788001
0.064619906 1.77 -1.05653
0.0913179 1.77 -1.0405
0.115071 1.77 -1.0099699
0.138825 1.77 -0.99965698
0.16325 1.77 -0.99215901
0.187592 1.77 -0.99547899
0.21330099 1.77 -0.99284601
0.23798899 1.77 -0.98773295
0.26208299 1.77 -0.98239201
0.28742 1.77 -0.97814602
0.31076902 1.77 -0.96992999
0.332396 1.77 -0.95770699
0.360185 1.77 -0.96016496
0.384763 1.77 -0.95381898
0.41111299 1.77 -0.949031
0.433779 1.77 -0.94026399
0.45824301 1.77 -0.92858696
0.48493701 1.77 -0.92538601
0.51159501 1.77 -0.92294204
0.54623801 1.77 -0.93080801
0.58013499 1.77 -0.93634701
0.61248201 1.77 -0.93530202
0.65594596 1.77 -0.95218104
0.73434401 1.77 -1.01248
0.76476502 1.77 -1.00231
0.79786402 1.77 -0.99578601
0.82602799 1.77 -0.97844601
0.87300199 1.77 -0.98674905
0.906111 1.77 -0.97221601
0.93765301 1.77 -0.95729101
0.98034 1.77 -0.95448399
1.01693 1.77 -0.94209701
1.0586801 1.77 -0.93355703
1.0954 1.77 -0.92118502
1.1325101 1.77 -0.90589398
1.1658299 1.77 -0.88551503
1.1973799 1.77 -0.863478
1.24191 1.77 -0.85055202
1.28503 1.77 -0.83500999
1.3377199 1.77 -0.82327002
1.3858299 1.77 -0.80566102
1.42425 1.77 -0.78238398
1.45925 1.77 -0.7561
1.4561501 1.77 -0.70824403
1.5687901 1.77 -0.67096603
-1.9997 1.77 -1.16985
-1.7710601 1.77 -1.15839
-1.75448 1.77 -1.20864
-1.5468299 1.77 -1.1251301
-1.47288 1.77 -1.1289101
-1.3958499 1.77 -1.1265601
-1.31627 1.77 -1.11801
-1.2510899 1.77 -1.11787
-1.19198 1.77 -1.11947
-1.12512 1.77 -1.10928
-1.06513 1.77 -1.10358
-1.01083 1.77 -1.10554
-0.95866603 1.77 -1.1028199
-0.91155499 1.77 -1.1021301
-0.86045206 1.77 -1.09516
-0.81193101 1.77 -1.0885501
-0.77398998 1.77 -1.09264
-0.72640902 1.77 -1.0820301
-0.68986201 1.77 -1.0867901
-0.64440602 1.77 -1.07313
-0.60664696 1.77 -1.0688399
-0.57427502 1.77 -1.0729899
-0.536412 1.77 -1.06784
-0.50329298 1.77 -1.06563
-0.46782503 1.77 -1.0592901
-0.43787 1.77 -1.0620201
-0.40784299 1.77 -1.0616
-0.37295699 1.77 -1.04865
-0.33968303 1.77 -1.03677
-0.315999 1.77 -1.04685
-0.30099303 1.77 -1.0969499
-0.27898499 1.77 -1.12286
-0.25654501 1.77 -1.14537
-0.226907 1.77 -1.14728
-0.198173 1.77 -1.1495401
-0.167858 1.77 -1.14451
-0.13824001 1.77 -1.1439301
-0.111014 1.77 -1.1431201
-0.0808952 1.77 -1.13462
-0.052585497 1.77 -1.12027
-0.024154199 1.77 -1.12099
0.0030229599 1.77 -1.1085
0.0300324 1.77 -1.0900899
0.055447798 1.77 -1.06356
0.081684999 1.77 -1.05259
0.107064 1.77 -1.0294499
0.129822 1.77 -1.0051501
0.15416299 1.77 -0.99082899
0.178569 1.77 -0.98138601
0.203923 1.77 -0.99124104
0.22862601 1.77 -0.98660702
0.25488698 1.77 -0.98557395
0.27898198 1.77 -0.97694701
0.30352399 1.77 -0.97562599
0.32887799 1.77 -0.96710998
0.351897 1.77 -0.96030498
0.37755999 1.77 -0.95696098
0.40184101 1.77 -0.95028001
0.42699799 1.77 -0.943088
0.451139 1.77 -0.93205905
0.48097101 1.77 -0.934488
0.50904602 1.77 -0.93147999
0.53586799 1.77 -0.92932099
0.57204497 1.77 -0.93750596
0.60351598 1.77 -0.93546504
0.64717197 1.77 -0.95273101
0.71544302 1.77 -1.00359
0.754237 1.77 -1.00432
0.78834498 1.77 -0.99665302
0.81635201 1.77 -0.98101205
0.8574 1.77 -0.97983098
0.89890099 1.77 -0.979904
0.93101597 1.77 -0.964095
0.97337002 1.77 -0.961236
1.00629 1.77 -0.945072
1.0431401 1.77 -0.93410903
1.08496 1.77 -0.92306894
1.11701 1.77 -0.90402901
1.14916 1.77 -0.88427198
1.18625 1.77 -0.86731297
1.226 1.77 -0.85248601
1.27896 1.77 -0.84201705
1.3187 1.77 -0.82451701
1.37254 1.77 -0.811517
1.39903 1.77 -0.78199297
1.4411899 1.77 -0.75774401
1.4829 1.77 -0.73430496
1.5452 1.77 -0.673877
-1.9188 1.77 -1.14653
-1.83819 1.77 -1.1598101
-1.7381999 1.77 -1.15869
-1.4939699 1.77 -1.10548
-1.4307801 1.77 -1.11471
-1.37205 1.77 -1.12413
-1.3007801 1.77 -1.1195899
-1.2312601 1.77 -1.11412
-1.17353 1.77 -1.1160699
-1.10174 1.77 -1.10054
-1.04853 1.77 -1.1000999
-0.99305499 1.77 -1.10109
-0.94484001 1.77 -1.0995699
-0.89564502 1.77 -1.09805
-0.85108399 1.77 -1.09487
-0.80331099 1.77 -1.0880899
-0.75884199 1.77 -1.08374
-0.71718001 1.77 -1.0809799
-0.67627603 1.77 -1.0770301
-0.63661498 1.77 -1.07138
-0.59969598 1.77 -1.06674
-0.56431204 1.77 -1.0627099
-0.53032798 1.77 -1.06222
-0.50088799 1.77 -1.0673101
-0.46702099 1.77 -1.06375
-0.43564701 1.77 -1.06321
-0.40009999 1.77 -1.05172
-0.36921799 1.77 -1.04626
-0.33705899 1.77 -1.04026
-0.31228602 1.77 -1.0479599
-0.30263001 1.77 -1.10765
-0.277147 1.77 -1.12332
-0.253313 1.77 -1.1455799
-0.223777 1.77 -1.14789
-0.19518401 1.77 -1.14904
-0.16543201 1.77 -1.14536
-0.138108 1.77 -1.14545
-0.108855 1.77 -1.14358
-0.081126295 1.77 -1.1378599
-0.050514802 1.77 -1.11511
-0.023458799 1.77 -1.117
0.0045078504 1.77 -1.10199
0.0297215 1.77 -1.08959
0.056146 1.77 -1.0602601
0.083009697 1.77 -1.05474
0.106916 1.77 -1.01991
0.13175799 1.77 -1.00717
0.153235 1.77 -0.97958696
0.17941201 1.77 -0.99215901
0.20478 1.77 -0.99540401
0.230653 1.77 -0.98921603
0.25384 1.77 -0.98042202
0.279264 1.77 -0.97894597
0.302028 1.77 -0.97268796
0.32571501 1.77 -0.962111
0.35205498 1.77 -0.96317601
0.37829402 1.77 -0.95882201
0.401777 1.77 -0.95084995
0.427306 1.77 -0.94240004
0.44975901 1.77 -0.93244797
0.47846702 1.77 -0.93212098
0.50126803 1.77 -0.92262095
0.53473401 1.77 -0.92910904
0.56727898 1.77 -0.93484598
0.60160899 1.77 -0.93698901
0.64341104 1.77 -0.95165598
0.71294701 1.77 -1.00414
0.75473899 1.77 -1.00957
0.78527004 1.77 -1.00003
0.81717998 1.77 -0.987472
0.84961605 1.77 -0.97898799
0.89315003 1.77 -0.97737402
0.92413199 1.77 -0.963781
0.96277303 1.77 -0.95701396
1.00322 1.77 -0.94942296
1.04265 1.77 -0.94138396
1.08042 1.77 -0.92838395
1.1130999 1.77 -0.90843201
1.14059 1.77 -0.88513297
1.1835001 1.77 -0.87275201
1.22258 1.77 -0.85606301
1.27062 1.77 -0.84600002
1.31006 1.77 -0.82558799
1.3754201 1.77 -0.82184601
1.4025699 1.77 -0.791013
1.43679 1.77 -0.76445699
1.47662 1.77 -0.74074501
1.53611 1.77 -0.67840803
-1.79434 1.77 -1.14863
-1.70864 1.77 -1.15385
-1.4830899 1.77 -1.11379
-1.4237601 1.77 -1.1236601
-1.3571999 1.77 -1.12564
-1.27798 1.77 -1.1145999
-1.21215 1.77 -1.1113399
-1.15396 1.77 -1.11193
-1.0979 1.77 -1.11176
-1.03786 1.77 -1.10812
-0.98180604 1.77 -1.10244
-0.93651301 1.77 -1.1050301
-0.88570499 1.77 -1.0974201
-0.83615398 1.77 -1.09155
-0.790721 1.77 -1.0877099
-0.748891 1.77 -1.0845699
-0.70635301 1.77 -1.0812199
-0.66716903 1.77 -1.0768199
-0.63004899 1.77 -1.07497
-0.59129196 1.77 -1.07085
-0.55531597 1.77 -1.06462
-0.52169096 1.77 -1.06593
-0.49082002 1.77 -1.0661999
-0.45955399 1.77 -1.06563
-0.429167 1.77 -1.06557
-0.39321899 1.77 -1.05084
-0.36175001 1.77 -1.0478101
-0.332726 1.77 -1.0453199
-0.30528101 1.77 -1.0495
-0.296646 1.77 -1.1180699
-0.27169502 1.77 -1.13442
-0.24611701 1.77 -1.1440799
-0.21646899 1.77 -1.147
-0.188428 1.77 -1.14713
-0.159739 1.77 -1.1456701
-0.13077901 1.77 -1.1450601
-0.100707 1.77 -1.1368001
-0.073040396 1.77 -1.13816
-0.044611197 1.77 -1.1198599
-0.017370099 1.77 -1.11736
0.0101481 1.77 -1.09445
0.037371103 1.77 -1.0785999
0.061821498 1.77 -1.05319
0.087964199 1.77 -1.0448
0.113421 1.77 -1.01267
0.13845101 1.77 -1.00299
0.160455 1.77 -0.990336
0.18749899 1.77 -0.99498796
0.21159101 1.77 -0.99014395
0.23706399 1.77 -0.98744202
0.26069 1.77 -0.98146898
0.28617001 1.77 -0.97981501
0.30747899 1.77 -0.96783102
0.33066598 1.77 -0.95777601
0.35808998 1.77 -0.96014804
0.384841 1.77 -0.957021
0.40981799 1.77 -0.94959098
0.43234399 1.77 -0.94120002
0.45647001 1.77 -0.92946005
0.484721 1.77 -0.93114001
0.51128203 1.77 -0.92654401
0.54357398 1.77 -0.93149799
0.57726502 1.77 -0.93341899
0.60885501 1.77 -0.93587798
0.65212405 1.77 -0.94995505
0.72825098 1.77 -1.0110201
0.75982499 1.77 -0.99978697
0.79607803 1.77 -0.996894
0.82035798 1.77 -0.97766399
0.87188202 1.77 -0.98873901
0.90222305 1.77 -0.97548497
0.93512499 1.77 -0.961505
0.97660601 1.77 -0.95866197
1.0141 1.77 -0.945144
1.0499899 1.77 -0.93356097
1.0920601 1.77 -0.92398298
1.12502 1.77 -0.904441
1.1566401 1.77 -0.88601899
1.1886801 1.77 -0.86610699
1.2317801 1.77 -0.85203397
1.28203 1.77 -0.84053397
1.32113 1.77 -0.822034
1.3678399 1.77 -0.80521697
1.4070799 1.77 -0.78347301
1.44777 1.77 -0.75919002
1.48121 1.77 -0.73095399
1.54717 1.77 -0.67122495
-1.78391 1.77 -1.1399
-1.4773101 1.77 -1.1056701
-1.41702 1.77 -1.11646
-1.35781 1.77 -1.1249
-1.27877 1.77 -1.1140699
-1.2135501 1.77 -1.11018
-1.15529 1.77 -1.11018
-1.0950201 1.77 -1.1058199
-1.03 1.77 -1.09732
-0.98357499 1.77 -1.1001899
-0.92937702 1.77 -1.09601
-0.88132399 1.77 -1.0926
-0.83978599 1.77 -1.0944301
-0.78970098 1.77 -1.08196
-0.74436498 1.77 -1.0767601
-0.70809996 1.77 -1.08067
-0.66752195 1.77 -1.07542
-0.62839699 1.77 -1.07014
-0.59032899 1.77 -1.06567
-0.55543298 1.77 -1.0634301
-0.52521801 1.77 -1.06504
-0.48897001 1.77 -1.0599
-0.458152 1.77 -1.0607901
-0.42767301 1.77 -1.06186
-0.39221302 1.77 -1.0464101
-0.36280301 1.77 -1.04348
-0.332499 1.77 -1.04461
-0.30620301 1.77 -1.0505301
-0.29736701 1.77 -1.1171
-0.27280399 1.77 -1.1295201
-0.247114 1.77 -1.14719
-0.21801801 1.77 -1.14493
-0.188347 1.77 -1.14663
-0.15977299 1.77 -1.14592
-0.131541 1.77 -1.14069
-0.101614 1.77 -1.13647
-0.0732252 1.77 -1.13138
-0.0455883 1.77 -1.1213199
-0.0170577 1.77 -1.11687
0.0086834701 1.77 -1.09797
0.035375301 1.77 -1.0716701
0.060786501 1.77 -1.05024
0.087026298 1.77 -1.04388
0.110437 1.77 -1.0135
0.13548599 1.77 -0.99961001
0.15874699 1.77 -0.98833197
0.18369901 1.77 -0.99569601
0.209509 1.77 -0.993653
0.23458201 1.77 -0.98777699
0.256625 1.77 -0.98124796
0.28306901 1.77 -0.978113
0.30615899 1.77 -0.96824902
0.32957 1.77 -0.96396804
0.357999 1.77 -0.96391702
0.382045 1.77 -0.95760304
0.40713701 1.77 -0.95264697
0.429104 1.77 -0.94158196
0.45208201 1.77 -0.93076801
0.48139998 1.77 -0.93032801
0.50954002 1.77 -0.93177897
0.541641 1.77 -0.93638003
0.57565802 1.77 -0.93881297
0.60592496 1.77 -0.93807501
0.65168703 1.77 -0.95600897
0.72563702 1.77 -1.0132101
0.75786197 1.77 -1.00629
0.78888899 1.77 -0.99622303
0.816136 1.77 -0.98184103
0.86658299 1.77 -0.99305499
0.89919502 1.77 -0.978616
0.93056798 1.77 -0.96626395
0.97320098 1.77 -0.96211797
1.01231 1.77 -0.95436603
1.04239 1.77 -0.933442
1.08371 1.77 -0.92608398
1.12071 1.77 -0.91057396
1.14826 1.77 -0.88707501
1.1863199 1.77 -0.86934495
1.22893 1.77 -0.85701597
1.2727801 1.77 -0.84093904
1.3182499 1.77 -0.82523602
1.36476 1.77 -0.81043404
1.40473 1.77 -0.78819597
1.4437901 1.77 -0.76565897
1.47935 1.77 -0.73808002
1.5443699 1.77 -0.67702597
-1.9527299 1.8 -1.18276
-1.7946601 1.8 -1.1481401
-1.7085301 1.8 -1.1544499
-1.68042 1.8 -1.19587
-1.51035 1.8 -1.1362
-1.43037 1.8 -1.13141
-1.3624201 1.8 -1.135
-1.29009 1.8 -1.13076
-1.22296 1.8 -1.12617
-1.16508 1.8 -1.1263299
-1.1018699 1.8 -1.1218901
-1.04632 1.8 -1.12143
-0.98857504 1.8 -1.11615
-0.934322 1.8 -1.1091701
-0.885436 1.8 -1.1069399
-0.84241802 1.8 -1.10909
-0.79522103 1.8 -1.1001999
-0.74843299 1.8 -1.09216
-0.70580298 1.8 -1.08814
-0.665079 1.8 -1.08398
-0.62551701 1.8 -1.07934
-0.586734 1.8 -1.07364
-0.55063301 1.8 -1.07127
-0.51866901 1.8 -1.0715799
-0.48508301 1.8 -1.06827
-0.45149702 1.8 -1.06608
-0.42209202 1.8 -1.06812
-0.387826 1.8 -1.0565699
-0.35492998 1.8 -1.04935
-0.32565501 1.8 -1.04676
-0.298363 1.8 -1.04915
-0.28807902 1.8 -1.11643
-0.263919 1.8 -1.1318901
-0.238084 1.8 -1.1493499
-0.20698901 1.8 -1.14824
-0.178909 1.8 -1.15194
-0.14821801 1.8 -1.14268
-0.120362 1.8 -1.1421801
-0.092960604 1.8 -1.1452299
-0.064037099 1.8 -1.1387
-0.0333541 1.8 -1.12175
-0.0066999798 1.8 -1.11673
0.020490101 1.8 -1.10481
0.047084998 1.8 -1.07172
0.072414495 1.8 -1.05627
0.099973001 1.8 -1.04724
0.123573 1.8 -1.01098
0.147035 1.8 -0.99873501
0.17103501 1.8 -0.98729497
0.197041 1.8 -0.99059302
0.221523 1.8 -0.99027503
0.24710099 1.8 -0.98420501
0.27064699 1.8 -0.979029
0.29727399 1.8 -0.98094499
0.321219 1.8 -0.96968102
0.34354299 1.8 -0.96013999
0.37023401 1.8 -0.95901597
0.39499798 1.8 -0.952874
0.42112899 1.8 -0.94517601
0.44292301 1.8 -0.93516099
0.466104 1.8 -0.924106
0.49594298 1.8 -0.92662901
0.52607101 1.8 -0.926287
0.55420297 1.8 -0.924631
0.59157395 1.8 -0.93419701
0.623604 1.8 -0.93273902
0.67772603 1.8 -0.96229702
0.74090004 1.8 -1.0024099
0.77414399 1.8 -0.99476701
0.80733198 1.8 -0.98812503
0.834759 1.8 -0.97199702
0.88344705 1.8 -0.97740901
0.91421598 1.8 -0.96390897
0.94941801 1.8 -0.95305002
0.98922497 1.8 -0.944911
1.0255699 1.8 -0.93156403
1.06238 1.8 -0.92097104
1.10053 1.8 -0.90720695
1.13648 1.8 -0.89041197
1.17346 1.8 -0.87328005
1.21012 1.8 -0.85423601
1.25003 1.8 -0.837219
1.2944499 1.8 -0.82267201
1.3393 1.8 -0.806723
1.3680201 1.8 -0.77744097
1.42549 1.8 -0.76544297
1.45991 1.8 -0.738352
1.4057901 1.8 -0.665829
1.518 1.8 -0.67486298
-1.76618 1.8 -1.16763
-1.69155 1.8 -1.17963
-1.54098 1.8 -1.13313
-1.48551 1.8 -1.1502
-1.41438 1.8 -1.15174
-1.3379 1.8 -1.14774
-1.2480601 1.8 -1.12499
-1.1870899 1.8 -1.12466
-1.12968 1.8 -1.12599
-1.06794 1.8 -1.1192501
-1.00992 1.8 -1.1155
-0.95438302 1.8 -1.10884
-0.90659499 1.8 -1.1065301
-0.86211604 1.8 -1.1071899
-0.811041 1.8 -1.09606
-0.76978898 1.8 -1.09682
-0.72405404 1.8 -1.08811
-0.68401802 1.8 -1.0886999
-0.64214504 1.8 -1.0800201
-0.60442603 1.8 -1.07584
-0.56830102 1.8 -1.07305
-0.53418297 1.8 -1.07287
-0.49641699 1.8 -1.06306
-0.465799 1.8 -1.0672801
-0.43800202 1.8 -1.0706199
-0.40561199 1.8 -1.0661999
-0.36920002 1.8 -1.0507801
-0.33908498 1.8 -1.04748
-0.31106499 1.8 -1.0511899
-0.291482 1.8 -1.08192
-0.275556 1.8 -1.1234499
-0.25117901 1.8 -1.1463001
-0.22345699 1.8 -1.15126
-0.19345 1.8 -1.1579499
-0.164088 1.8 -1.1493499
-0.13356 1.8 -1.14448
-0.106371 1.8 -1.1473299
-0.076781504 1.8 -1.13816
-0.047845799 1.8 -1.1239799
-0.0196427 1.8 -1.12533
0.0075641698 1.8 -1.10947
0.033822898 1.8 -1.09723
0.059840001 1.8 -1.06407
0.086499102 1.8 -1.05847
0.113211 1.8 -1.02854
0.13597301 1.8 -1.01569
0.159104 1.8 -0.99055403
0.182537 1.8 -0.98040199
0.20818201 1.8 -0.991377
0.23415801 1.8 -0.98839206
0.25864899 1.8 -0.979164
0.28295201 1.8 -0.97970802
0.30872601 1.8 -0.97451705
0.33246702 1.8 -0.96641099
0.35913801 1.8 -0.96295899
0.381639 1.8 -0.955073
0.406661 1.8 -0.94795501
0.43192598 1.8 -0.94029099
0.45461899 1.8 -0.92953199
0.48245999 1.8 -0.92865199
0.512079 1.8 -0.93038601
0.53740102 1.8 -0.92381096
0.57130498 1.8 -0.92887098
0.60832798 1.8 -0.93562502
0.664666 1.8 -0.97106099
0.71198601 1.8 -0.98730606
0.75873399 1.8 -1.00062
0.78821802 1.8 -0.99037099
0.82191199 1.8 -0.98223299
0.85376 1.8 -0.96872103
0.89805299 1.8 -0.97150898
0.92649901 1.8 -0.95315599
0.95241898 1.8 -0.93440902
1.00115 1.8 -0.93409902
1.03629 1.8 -0.92188299
1.08169 1.8 -0.91571897
1.11903 1.8 -0.90112799
1.141 1.8 -0.873546
1.17783 1.8 -0.85721999
1.22628 1.8 -0.84724104
1.27074 1.8 -0.83313203
1.30268 1.8 -0.80956894
1.3488901 1.8 -0.79158396
1.3817099 1.8 -0.76737201
1.43977 1.8 -0.75399297
1.46753 1.8 -0.72420597
1.5413901 1.8 -0.668217
-1.7769301 1.8 -1.1740301
-1.45953 1.8 -1.12945
-1.3923199 1.8 -1.1325101
-1.33997 1.8 -1.14571
-1.25585 1.8 -1.1282901
-1.1890501 1.8 -1.1222199
-1.1383801 1.8 -1.12787
-1.0761801 1.8 -1.12174
-1.00754 1.8 -1.10922
-0.96469301 1.8 -1.11711
-0.912229 1.8 -1.11032
-0.86425203 1.8 -1.10806
-0.81879199 1.8 -1.10338
-0.771716 1.8 -1.09639
-0.72678602 1.8 -1.089
-0.68662798 1.8 -1.08824
-0.64890802 1.8 -1.08734
-0.607072 1.8 -1.07779
-0.57293105 1.8 -1.0754
-0.53789097 1.8 -1.0729699
-0.50463402 1.8 -1.07301
-0.46978101 1.8 -1.06608
-0.440438 1.8 -1.06908
-0.40907598 1.8 -1.06916
-0.37331602 1.8 -1.0533
-0.342329 1.8 -1.04774
-0.31371501 1.8 -1.0475301
-0.29191402 1.8 -1.0616
-0.279057 1.8 -1.11924
-0.25288099 1.8 -1.13774
-0.22840801 1.8 -1.15157
-0.200351 1.8 -1.15652
-0.16776299 1.8 -1.1460401
-0.140911 1.8 -1.14763
-0.110415 1.8 -1.14343
-0.083700106 1.8 -1.1389301
-0.0550659 1.8 -1.13992
-0.0254732 1.8 -1.1252099
0.00242873 1.8 -1.11325
0.027933 1.8 -1.10115
0.054872099 1.8 -1.08086
0.079651706 1.8 -1.05625
0.106528 1.8 -1.02975
0.130804 1.8 -1.01712
0.152651 1.8 -0.99359196
0.175873 1.8 -0.98796803
0.200352 1.8 -0.98202002
0.22752599 1.8 -0.99045205
0.25164101 1.8 -0.98408598
0.277612 1.8 -0.98331296
0.30241501 1.8 -0.97675598
0.325582 1.8 -0.97218001
0.348582 1.8 -0.96098197
0.37392002 1.8 -0.95382601
0.398633 1.8 -0.95135903
0.42370498 1.8 -0.94402397
0.44769198 1.8 -0.93205601
0.47373903 1.8 -0.92976499
0.50060499 1.8 -0.92440301
0.523992 1.8 -0.91970396
0.558541 1.8 -0.927275
0.59280497 1.8 -0.931638
0.63123602 1.8 -0.94026399
0.69323403 1.8 -0.98317701
0.74335796 1.8 -1.0005901
0.77419394 1.8 -0.990924
0.80582702 1.8 -0.98354197
0.83430201 1.8 -0.96612203
0.88371396 1.8 -0.97716802
0.916309 1.8 -0.962955
0.950104 1.8 -0.95165902
0.97693199 1.8 -0.93316901
1.0254301 1.8 -0.93246001
1.06603 1.8 -0.92362797
1.0994301 1.8 -0.90579402
1.1401701 1.8 -0.89380604
1.16717 1.8 -0.86958897
1.20079 1.8 -0.85010797
1.2432901 1.8 -0.835159
1.29205 1.8 -0.82411605
1.3302901 1.8 -0.80278099
1.3663199 1.8 -0.77992797
1.4123299 1.8 -0.76036
1.4515699 1.8 -0.73711801
1.4830101 1.8 -0.708354
-1.77561 1.8 -1.17874
-1.44986 1.8 -1.1264
-1.3899599 1.8 -1.13501
-1.33803 1.8 -1.14721
-1.2469499 1.8 -1.1258399
-1.1884201 1.8 -1.1265301
-1.1411899 1.8 -1.13498
-1.07477 1.8 -1.12517
-1.01875 1.8 -1.12402
-0.96316803 1.8 -1.11843
-0.910873 1.8 -1.11175
-0.86319596 1.8 -1.1092
-0.81698501 1.8 -1.10472
-0.77412403 1.8 -1.10172
-0.72490501 1.8 -1.08875
-0.68926501 1.8 -1.0930799
-0.64873999 1.8 -1.0877299
-0.609501 1.8 -1.08073
-0.57211 1.8 -1.0752701
-0.53755498 1.8 -1.0723001
-0.50521898 1.8 -1.0727299
-0.470386 1.8 -1.0674499
-0.440045 1.8 -1.06978
-0.408317 1.8 -1.0654399
-0.373891 1.8 -1.0531
-0.34419799 1.8 -1.0505501
-0.316724 1.8 -1.05028
-0.29019001 1.8 -1.05196
-0.280577 1.8 -1.12272
-0.25443199 1.8 -1.13739
-0.228797 1.8 -1.15353
-0.199513 1.8 -1.14982
-0.171552 1.8 -1.15003
-0.141194 1.8 -1.1473399
-0.112628 1.8 -1.1467299
-0.085444503 1.8 -1.1455699
-0.055961702 1.8 -1.13913
-0.028771602 1.8 -1.12213
-0.00030386401 1.8 -1.1142499
0.025611799 1.8 -1.1047
0.0527968 1.8 -1.0747
0.078147396 1.8 -1.0516
0.105893 1.8 -1.0459
0.12866001 1.8 -1.0113499
0.15120399 1.8 -0.99684805
0.17445399 1.8 -0.98466498
0.200381 1.8 -0.99043298
0.2247 1.8 -0.98802102
0.25071201 1.8 -0.98380703
0.27599499 1.8 -0.98065197
0.301478 1.8 -0.97940004
0.32349199 1.8 -0.96945202
0.34599099 1.8 -0.95872903
0.37380099 1.8 -0.957362
0.398491 1.8 -0.95467001
0.42179999 1.8 -0.94460303
0.445324 1.8 -0.93429703
0.46958899 1.8 -0.92598605
0.49861699 1.8 -0.92434102
0.52698201 1.8 -0.92202699
0.56056201 1.8 -0.926054
0.59510499 1.8 -0.93076396
0.62925702 1.8 -0.93346101
0.68690002 1.8 -0.97081596
0.74783301 1.8 -1.00318
0.77508199 1.8 -0.98927701
0.808882 1.8 -0.98070699
0.835917 1.8 -0.96373296
0.88361198 1.8 -0.97118402
0.91806203 1.8 -0.96059304
0.95348603 1.8 -0.94933397
0.984514 1.8 -0.93426901
1.02396 1.8 -0.925524
1.06861 1.8 -0.92026299
1.1036 1.8 -0.90268201
1.14421 1.8 -0.88944203
1.1701801 1.8 -0.86638099
1.2068599 1.8 -0.848001
1.24683 1.8 -0.83212
1.2958101 1.8 -0.82006598
1.3356999 1.8 -0.80009401
1.3686401 1.8 -0.77483195
1.42009 1.8 -0.75805604
1.4541501 1.8 -0.73145801
1.4275401 1.8 -0.67422402
1.5271 1.8 -0.67592001
-1.78021 1.8 -1.17133
-1.64062 1.8 -1.13946
-1.48083 1.8 -1.13949
-1.41029 1.8 -1.1433001
-1.3427299 1.8 -1.14363
-1.26526 1.8 -1.13239
-1.1967 1.8 -1.1275899
-1.14556 1.8 -1.1312801
-1.08418 1.8 -1.12515
-1.01926 1.8 -1.1147701
-0.97012299 1.8 -1.11538
-0.92318702 1.8 -1.11619
-0.87513 1.8 -1.11447
-0.82568502 1.8 -1.10636
-0.77633899 1.8 -1.09343
-0.73566496 1.8 -1.0938801
-0.69349104 1.8 -1.0892199
-0.65403301 1.8 -1.08514
-0.613994 1.8 -1.0790401
-0.576092 1.8 -1.07286
-0.54121995 1.8 -1.0715799
-0.50981802 1.8 -1.07111
-0.47676998 1.8 -1.06927
-0.44363901 1.8 -1.0685699
-0.41470999 1.8 -1.07074
-0.37880498 1.8 -1.05506
-0.349179 1.8 -1.05312
-0.31678697 1.8 -1.04739
-0.29264599 1.8 -1.05413
-0.281863 1.8 -1.12137
-0.25634798 1.8 -1.13722
-0.229096 1.8 -1.14684
-0.203189 1.8 -1.1560301
-0.171404 1.8 -1.14904
-0.142194 1.8 -1.14773
-0.113541 1.8 -1.14639
-0.086381696 1.8 -1.1454999
-0.0564465 1.8 -1.1363499
-0.027828699 1.8 -1.12115
-0.0018236 1.8 -1.1145
0.026497601 1.8 -1.10393
0.0521864 1.8 -1.07423
0.077952906 1.8 -1.05287
0.104218 1.8 -1.04934
0.12704 1.8 -1.01407
0.15026499 1.8 -0.99800098
0.173786 1.8 -0.98402196
0.197166 1.8 -0.98699903
0.224319 1.8 -0.98759496
0.24780799 1.8 -0.98247999
0.27439299 1.8 -0.98421597
0.29814899 1.8 -0.980941
0.32459399 1.8 -0.97540897
0.34639999 1.8 -0.961505
0.37093702 1.8 -0.95928001
0.39681602 1.8 -0.95211798
0.42122298 1.8 -0.94677597
0.44328502 1.8 -0.93526703
0.46770802 1.8 -0.92665696
0.49631399 1.8 -0.926714
0.52383798 1.8 -0.92352897
0.55600595 1.8 -0.92821401
0.59051704 1.8 -0.93309098
0.62581998 1.8 -0.939376
0.68364 1.8 -0.97464204
0.74005604 1.8 -1.0024099
0.77045202 1.8 -0.99225402
0.80358398 1.8 -0.98408502
0.83001798 1.8 -0.96914697
0.87726897 1.8 -0.97590995
0.90884995 1.8 -0.962448
0.94382399 1.8 -0.95261604
0.96627003 1.8 -0.92803699
1.01908 1.8 -0.93126398
1.0508699 1.8 -0.91401303
1.0969 1.8 -0.90924698
1.13292 1.8 -0.89412498
1.1608299 1.8 -0.869304
1.19812 1.8 -0.85214597
1.23931 1.8 -0.83838302
1.28479 1.8 -0.82294101
1.32234 1.8 -0.80192202
1.3695999 1.8 -0.78626597
1.40832 1.8 -0.76515001
1.44953 1.8 -0.740565
1.4813299 1.8 -0.71301597
-1.8008599 1.83 -1.16531
-1.71262 1.83 -1.17156
-1.47931 1.83 -1.1217099
-1.4093699 1.83 -1.1260899
-1.3498 1.83 -1.1345
-1.27265 1.83 -1.12409
-1.20454 1.83 -1.1195799
-1.14726 1.83 -1.11884
-1.0859399 1.83 -1.11474
-1.03055 1.83 -1.1142399
-0.97693497 1.83 -1.10909
-0.92663801 1.83 -1.10616
-0.88239598 1.83 -1.1080799
-0.83320898 1.83 -1.1006999
-0.78477699 1.83 -1.09201
-0.74252695 1.83 -1.08863
-0.70071602 1.83 -1.08548
-0.66307801 1.83 -1.08404
-0.619789 1.83 -1.07486
-0.58501703 1.83 -1.07258
-0.54905796 1.83 -1.0718
-0.51576096 1.83 -1.0685401
-0.48133898 1.83 -1.06311
-0.45100901 1.83 -1.0649301
-0.42083499 1.83 -1.06835
-0.38383898 1.83 -1.04924
-0.353113 1.83 -1.0468
-0.325232 1.83 -1.04742
-0.298058 1.83 -1.05573
-0.28895402 1.83 -1.11982
-0.26234901 1.83 -1.1363599
-0.23564999 1.83 -1.14704
-0.207341 1.83 -1.1519899
-0.17700399 1.83 -1.14793
-0.149002 1.83 -1.14384
-0.119687 1.83 -1.14174
-0.091342904 1.83 -1.13684
-0.062538296 1.83 -1.12852
-0.0339357 1.83 -1.1207399
-0.0069794301 1.83 -1.11273
0.022061199 1.83 -1.1080301
0.047592901 1.83 -1.06344
0.073288694 1.83 -1.0522
0.098656602 1.83 -1.0275201
0.12236699 1.83 -1.0149
0.14536701 1.83 -0.99493599
0.16991499 1.83 -0.99535102
0.19428 1.83 -0.986552
0.22044399 1.83 -0.99179697
0.24426299 1.83 -0.98311001
0.268042 1.83 -0.98000503
0.29586402 1.83 -0.98110998
0.32008702 1.83 -0.97426599
0.34241599 1.83 -0.96611398
0.367506 1.83 -0.95738703
0.39292198 1.83 -0.95670503
0.419447 1.83 -0.94975096
0.440626 1.83 -0.93624598
0.46957999 1.83 -0.93607002
0.49717 1.83 -0.93504196
0.52265304 1.83 -0.92850596
0.55845803 1.83 -0.94043297
0.59462595 1.83 -0.94527799
0.644216 1.83 -0.97157598
0.68598497 1.83 -0.983679
0.73956001 1.83 -1.00806
0.76391101 1.83 -0.991624
0.80463398 1.83 -0.99032301
0.83173603 1.83 -0.97491401
0.876405 1.83 -0.97870004
0.91182202 1.83 -0.96823603
0.94164598 1.83 -0.953013
0.98095202 1.83 -0.94522899
1.01739 1.83 -0.93533194
1.0623699 1.83 -0.92859995
1.08986 1.83 -0.90793598
1.1275799 1.83 -0.89241099
1.16333 1.83 -0.87514096
1.1975 1.83 -0.85515803
1.24687 1.83 -0.845487
1.29015 1.83 -0.82985497
1.3344301 1.83 -0.815238
1.3624699 1.83 -0.78662503
1.41278 1.83 -0.77107096
1.44839 1.83 -0.74497199
1.39473 1.83 -0.67273796
1.52141 1.83 -0.68984199
1.57005 1.83 -0.665438
-1.9314599 1.83 -1.1540999
-1.82593 1.83 -1.1520699
-1.7737 1.83 -1.1802601
-1.53747 1.83 -1.13832
-1.44024 1.83 -1.12208
-1.3797801 1.83 -1.1304699
-1.3136899 1.83 -1.1325699
-1.2371999 1.83 -1.1213399
-1.17871 1.83 -1.1222299
-1.1171801 1.83 -1.11657
-1.0561999 1.83 -1.10937
-1.00324 1.83 -1.11177
-0.94423997 1.83 -1.10008
-0.89585197 1.83 -1.10014
-0.85356599 1.83 -1.10053
-0.80345398 1.83 -1.0926501
-0.75836498 1.83 -1.08621
-0.71584302 1.83 -1.08216
-0.682697 1.83 -1.08924
-0.63731897 1.83 -1.0759101
-0.60085601 1.83 -1.07153
-0.56526101 1.83 -1.06872
-0.53244299 1.83 -1.07011
-0.49903101 1.83 -1.0709399
-0.464699 1.83 -1.06476
-0.43436402 1.83 -1.0667
-0.40272197 1.83 -1.0603499
-0.36854401 1.83 -1.05074
-0.338292 1.83 -1.0440601
-0.30971301 1.83 -1.04872
-0.29705 1.83 -1.1014
-0.27484101 1.83 -1.12851
-0.25086701 1.83 -1.1463701
-0.220392 1.83 -1.1454899
-0.192091 1.83 -1.1498101
-0.163422 1.83 -1.1469201
-0.13555999 1.83 -1.14802
-0.105356 1.83 -1.14316
-0.077031195 1.83 -1.12361
-0.049773302 1.83 -1.13291
-0.021393299 1.83 -1.12055
0.0060499902 1.83 -1.1092299
0.032546397 1.83 -1.06525
0.057964399 1.83 -1.0564101
0.084768899 1.83 -1.04432
0.109181 1.83 -1.0226901
0.13414101 1.83 -1.01038
0.15636301 1.83 -0.99073702
0.182207 1.83 -0.992158
0.20464599 1.83 -0.98521996
0.23069501 1.83 -0.98817903
0.254893 1.83 -0.98118198
0.28127101 1.83 -0.97889203
0.304928 1.83 -0.97545004
0.331305 1.83 -0.97077298
0.35345802 1.83 -0.96212906
0.37979901 1.83 -0.95499903
0.40336099 1.83 -0.94882101
0.42771602 1.83 -0.941939
0.45095801 1.83 -0.931036
0.48257199 1.83 -0.93759996
0.50994402 1.83 -0.93554604
0.54290903 1.83 -0.93680203
0.574628 1.83 -0.93885702
0.61853999 1.83 -0.957605
0.66442102 1.83 -0.976978
0.70644397 1.83 -0.98697805
0.75509995 1.83 -1.00148
0.78609496 1.83 -0.99269503
0.82594597 1.83 -0.99254197
0.85447496 1.83 -0.97541398
0.89677799 1.83 -0.97438502
0.92658299 1.83 -0.96107703
0.94310403 1.83 -0.93033195
0.99768901 1.83 -0.93597102
1.02452 1.83 -0.91592604
1.07888 1.83 -0.91941601
1.11554 1.83 -0.90385103
1.14329 1.83 -0.88124299
1.18571 1.83 -0.86890197
1.21937 1.83 -0.84886903
1.26869 1.83 -0.83624798
1.31235 1.83 -0.82005
1.345 1.83 -0.79523104
1.38638 1.83 -0.775419
1.42997 1.83 -0.75383598
1.4656999 1.83 -0.72678399
1.5402 1.83 -0.67219895
-1.8120699 1.83 -1.1746701
-1.71315 1.83 -1.17123
-1.68402 1.83 -1.21232
-1.4773901 1.83 -1.1221701
-1.41772 1.83 -1.13086
-1.35192 1.83 -1.13314
-1.28632 1.83 -1.13429
-1.21787 1.83 -1.12764
-1.1593599 1.83 -1.12755
-1.0916899 1.83 -1.11577
-1.0334001 1.83 -1.1136501
-0.97684997 1.83 -1.10717
-0.93419999 1.83 -1.11026
-0.88453102 1.83 -1.1076601
-0.83803499 1.83 -1.1039399
-0.78685498 1.83 -1.09113
-0.74235702 1.83 -1.0833
-0.70593905 1.83 -1.0883499
-0.66220301 1.83 -1.07929
-0.62921101 1.83 -1.0809599
-0.58783698 1.83 -1.07218
-0.554021 1.83 -1.06924
-0.51845396 1.83 -1.0666801
-0.48830101 1.83 -1.07148
-0.45332801 1.83 -1.06313
-0.42366901 1.83 -1.0661601
-0.38770401 1.83 -1.04916
-0.35973701 1.83 -1.0522
-0.33082101 1.83 -1.04724
-0.301873 1.83 -1.0473599
-0.29427701 1.83 -1.11404
-0.26900899 1.83 -1.12863
-0.241129 1.83 -1.14054
-0.213737 1.83 -1.14624
-0.186077 1.83 -1.1465
-0.156166 1.83 -1.1451501
-0.12820199 1.83 -1.14183
-0.100353 1.83 -1.13633
-0.070767604 1.83 -1.12678
-0.0435744 1.83 -1.13266
-0.0161043 1.83 -1.11413
0.0123464 1.83 -1.1041801
0.037969101 1.83 -1.05432
0.063303798 1.83 -1.0490899
0.090749703 1.83 -1.0340301
0.115942 1.83 -1.0151501
0.13892999 1.83 -1.0064601
0.163196 1.83 -0.99014097
0.181655 1.83 -0.95538396
0.20845599 1.83 -0.97547495
0.237719 1.83 -0.98779798
0.26105201 1.83 -0.97852695
0.2861 1.83 -0.97957504
0.31222001 1.83 -0.976291
0.33694801 1.83 -0.972534
0.35878 1.83 -0.95642
0.38260299 1.83 -0.95145398
0.410054 1.83 -0.95084995
0.434569 1.83 -0.942653
0.45548901 1.83 -0.92938399
0.48749101 1.83 -0.93646199
0.51609999 1.83 -0.93587798
0.54712099 1.83 -0.93347901
0.58250499 1.83 -0.94017202
0.62861401 1.83 -0.96567297
0.67136604 1.83 -0.97798604
0.71374702 1.83 -0.98634195
0.75791699 1.83 -0.99558401
0.78999299 1.83 -0.98927599
0.82169002 1.83 -0.97654498
0.86450499 1.83 -0.98091197
0.90024596 1.83 -0.97015899
0.93407899 1.83 -0.96042997
0.96568501 1.83 -0.94587499
1.00579 1.83 -0.93791801
1.02863 1.83 -0.91356498
1.0726999 1.83 -0.90660399
1.12508 1.83 -0.90397805
1.14648 1.83 -0.87625599
1.1939399 1.83 -0.866952
1.22227 1.83 -0.84249699
1.27013 1.83 -0.83223701
1.31567 1.83 -0.81614602
1.3559999 1.83 -0.79576004
1.39394 1.83 -0.77366805
1.43486 1.83 -0.75042701
1.46796 1.83 -0.72391599
1.54162 1.83 -0.66831702
-1.81346 1.83 -1.17206
-1.70295 1.83 -1.16222
-1.5248801 1.83 -1.1543001
-1.4184201 1.83 -1.13079
-1.3520401 1.83 -1.13261
-1.2808599 1.83 -1.12762
-1.2201999 1.83 -1.1273299
-1.15549 1.83 -1.1225699
-1.094 1.83 -1.1163001
-1.0325501 1.83 -1.11273
-0.97855401 1.83 -1.10666
-0.928949 1.83 -1.10585
-0.88420802 1.83 -1.10664
-0.83924001 1.83 -1.10366
-0.788333 1.83 -1.09129
-0.74785304 1.83 -1.09196
-0.70783198 1.83 -1.08802
-0.665016 1.83 -1.07991
-0.62665397 1.83 -1.07724
-0.58807701 1.83 -1.07262
-0.55556798 1.83 -1.07295
-0.519364 1.83 -1.0670699
-0.489678 1.83 -1.0714
-0.45372 1.83 -1.0640501
-0.424144 1.83 -1.0664999
-0.391509 1.83 -1.05414
-0.358275 1.83 -1.0498
-0.32964498 1.83 -1.05049
-0.30115399 1.83 -1.04809
-0.28992301 1.83 -1.11105
-0.26621601 1.83 -1.1305799
-0.240601 1.83 -1.1457601
-0.210878 1.83 -1.14652
-0.184287 1.83 -1.15134
-0.15348801 1.83 -1.14652
-0.12511499 1.83 -1.1424201
-0.0979141 1.83 -1.1443199
-0.067836195 1.83 -1.12421
-0.041084997 1.83 -1.13225
-0.012449799 1.83 -1.11343
0.015672799 1.83 -1.10514
0.040228002 1.83 -1.06074
0.067308605 1.83 -1.0488399
0.091870904 1.83 -1.03066
0.114886 1.83 -1.01326
0.138239 1.83 -1.00958
0.161938 1.83 -0.99262702
0.18465199 1.83 -0.97695303
0.209307 1.83 -0.97554898
0.23636301 1.83 -0.98452502
0.26035801 1.83 -0.98129797
0.28604299 1.83 -0.98037297
0.30944699 1.83 -0.97218901
0.33376801 1.83 -0.97019297
0.35817403 1.83 -0.96358502
0.38208401 1.83 -0.95166302
0.40832502 1.83 -0.94968903
0.43246201 1.83 -0.94417101
0.45167401 1.83 -0.92735302
0.484732 1.83 -0.93676704
0.51494396 1.83 -0.9368
0.543441 1.83 -0.93302304
0.57931703 1.83 -0.94478101
0.61899501 1.83 -0.95373702
0.663109 1.83 -0.97333503
0.70859599 1.83 -0.98543501
0.75524998 1.83 -1.00168
0.78438002 1.83 -0.98831201
0.82463396 1.83 -0.98712599
0.84907299 1.83 -0.96818203
0.891774 1.83 -0.96947801
0.92979604 1.83 -0.96388298
0.94689298 1.83 -0.93254197
0.99677598 1.83 -0.93767297
1.0236501 1.83 -0.916152
1.07889 1.83 -0.92094797
1.1062601 1.83 -0.89783198
1.1366301 1.83 -0.87759495
1.17922 1.83 -0.86464298
1.21604 1.83 -0.84753305
1.2615401 1.83 -0.83301502
1.3053 1.83 -0.81812096
1.34542 1.83 -0.79746199
1.38511 1.83 -0.77718598
1.4240899 1.83 -0.75371897
1.46386 1.83 -0.729357
1.53013 1.83 -0.67277396
-1.85426 1.83 -1.1629
-1.7524 1.83 -1.16127
-1.5313101 1.83 -1.1273
-1.4673001 1.83 -1.13738
-1.38999 1.83 -1.13378
-1.3253599 1.83 -1.1351
-1.2466899 1.83 -1.12314
-1.18673 1.83 -1.1243199
-1.12485 1.83 -1.1205601
-1.06488 1.83 -1.11422
-1.01144 1.83 -1.11412
-0.956523 1.83 -1.10765
-0.90822899 1.83 -1.1042199
-0.86086297 1.83 -1.1030899
-0.81506598 1.83 -1.09899
-0.77218002 1.83 -1.09514
-0.72333503 1.83 -1.08319
-0.68474203 1.83 -1.08263
-0.644409 1.83 -1.0778
-0.61037797 1.83 -1.0767801
-0.57304698 1.83 -1.0742099
-0.536973 1.83 -1.06896
-0.50526297 1.83 -1.06829
-0.470855 1.83 -1.0661501
-0.44121701 1.83 -1.06849
-0.40997002 1.83 -1.06454
-0.372706 1.83 -1.0479499
-0.34430099 1.83 -1.0460401
-0.31535599 1.83 -1.04678
-0.29655898 1.83 -1.07276
-0.279241 1.83 -1.11867
-0.25581798 1.83 -1.1406701
-0.22689 1.83 -1.14065
-0.19763601 1.83 -1.1445601
-0.16976401 1.83 -1.14877
-0.14179401 1.83 -1.1445
-0.11260299 1.83 -1.14648
-0.084224299 1.83 -1.13337
-0.0571745 1.83 -1.13231
-0.0278349 1.83 -1.1214
-0.00090975303 1.83 -1.112
0.0271402 1.83 -1.09341
0.052362099 1.83 -1.05996
0.0772558 1.83 -1.0551801
0.103574 1.83 -1.0257801
0.12894399 1.83 -1.01358
0.149726 1.83 -0.99075001
0.174539 1.83 -0.99302804
0.197328 1.83 -0.98084801
0.225554 1.83 -0.98680103
0.25069001 1.83 -0.98484397
0.27472502 1.83 -0.98126799
0.30040303 1.83 -0.97685301
0.323991 1.83 -0.97271198
0.34992999 1.83 -0.96634305
0.37157801 1.83 -0.954741
0.397432 1.83 -0.95213205
0.422465 1.83 -0.94540101
0.44635901 1.83 -0.93712699
0.47419 1.83 -0.938227
0.50329399 1.83 -0.93545204
0.52855903 1.83 -0.92889804
0.560884 1.83 -0.93520004
0.598939 1.83 -0.94639897
0.64739203 1.83 -0.96946198
0.68975502 1.83 -0.98164999
0.74300301 1.83 -1.00583
0.77278697 1.83 -0.99582201
0.80437404 1.83 -0.985053
0.83166403 1.83 -0.96839398
0.88201398 1.83 -0.97903901
0.91455001 1.83 -0.96531498
0.94010699 1.83 -0.946796
0.98311603 1.83 -0.94370097
1.0190101 1.83 -0.93171
1.0641999 1.83 -0.92611605
1.09302 1.83 -0.90452397
1.1295699 1.83 -0.88948601
1.1652 1.83 -0.87306798
1.2019 1.83 -0.85631704
1.2407299 1.83 -0.83984196
1.2899799 1.83 -0.82874596
